ply
format ascii 1.0
element vertex 997
property float x
property float y
property float z
end_header
-5302112.593496 -17670997.324768 8137193.563321
-5302112.176991 -17670997.683679 8137193.245379
-5302112.622305 -17670997.451620 8137193.498813
-5302112.517531 -17670997.133140 8137193.659431
-5302112.584790 -17670997.517639 8137193.452326
-5302112.783657 -17670997.010352 8137194.025299
-5302112.254083 -17670997.547402 8137193.277063
-5302112.546047 -17670997.196757 8137193.623088
-5302112.641826 -17670997.179522 8137193.705875
-5302112.132628 -17670997.669920 8137193.222910
-5302112.876773 -17670997.336008 8137193.660832
-5302113.051543 -17670996.529499 8137195.342947
-5302112.298864 -17670997.385827 8137193.326601
-5302112.018176 -17670997.470506 8137193.108607
-5302108.435168 -17670996.484460 8137187.015444
-5302112.534739 -17670997.396279 8137193.476567
-5302112.503478 -17670997.384578 8137193.467392
-5302112.840047 -17670997.191866 8137193.784076
-5302112.011303 -17670997.458617 8137193.098388
-5302111.531737 -17670997.383926 8137192.656573
-5302112.851150 -17670997.452090 8137193.573672
-5302113.034388 -17670996.731298 8137194.815850
-5302112.497271 -17670997.371980 8137193.472359
-5302112.101705 -17670997.422942 8137193.165133
-5302112.771204 -17670997.040674 8137193.966023
-5302112.509358 -17670997.528809 8137193.415150
-5302112.629209 -17670997.424560 8137193.512741
-5302111.561693 -17670997.385891 8137192.683681
-5302112.992617 -17670996.410244 8137195.429912
-5302111.263245 -17670997.110837 8137192.062679
-5302109.984146 -17670996.770535 8137189.762193
-5302112.072973 -17670997.414498 8137193.141538
-5302110.670514 -17670996.873330 8137190.904463
-5302112.146811 -17670997.520640 8137193.206858
-5302110.049085 -17670996.786084 8137189.875128
-5302112.095123 -17670997.703046 8137193.214864
-5302112.832972 -17670997.588022 8137193.495297
-5302110.086198 -17670996.698304 8137189.717781
-5302112.556254 -17670997.452769 8137193.469589
-5302112.992977 -17670996.465068 8137195.477205
-5302111.825090 -17670997.392380 8137192.914483
-5302112.584073 -17670997.471515 8137193.475031
-5302112.554422 -17670997.191676 8137193.632615
-5302112.745656 -17670996.948243 8137194.147615
-5302110.757130 -17670996.701093 8137190.791206
-5302111.995961 -17670997.395590 8137193.070575
-5302111.561533 -17670997.386779 8137192.680888
-5302112.128401 -17670997.388082 8137193.182951
-5302111.998344 -17670997.460454 8137193.089308
-5302109.869577 -17670996.640174 8137189.266168
-5302112.544776 -17670997.393688 8137193.490195
-5302112.568581 -17670997.526657 8137193.445392
-5302110.482095 -17670996.974645 8137190.899314
-5302110.911930 -17670996.721375 8137191.098581
-5302112.366900 -17670997.374673 8137193.379680
-5302112.612633 -17670997.216117 8137193.652143
-5302109.718456 -17670996.615156 8137188.976834
-5302112.650491 -17670997.180250 8137193.712754
-5302112.655677 -17670997.271559 8137193.628112
-5302112.576812 -17670997.353332 8137193.530071
-5302106.691872 -17670994.930359 8137184.642420
-5302111.948353 -17670997.400327 8137193.031362
-5302112.542217 -17670997.200210 8137193.619475
-5302112.107170 -17670997.562607 8137193.187244
-5302112.204248 -17670997.480004 8137193.247644
-5302112.609236 -17670997.424103 8137193.510269
-5302112.655532 -17670997.427841 8137193.523209
-5302112.673045 -17670997.460955 8137193.515219
-5302112.836252 -17670997.600297 8137193.487630
-5302111.846060 -17670997.383738 8137192.934715
-5302112.539363 -17670997.126268 8137193.686585
-5302111.261452 -17670997.107860 8137192.056802
-5302112.681914 -17670997.557729 8137193.471288
-5302112.675018 -17670997.501869 8137193.495772
-5302112.695945 -17670997.185353 8137193.734192
-5302112.064844 -17670997.400779 8137193.127972
-5302111.990486 -17670997.413403 8137193.068204
-5302112.041400 -17670997.502071 8137193.130234
-5302110.686442 -17670996.858229 8137190.901587
-5302112.697267 -17670997.196109 8137193.723399
-5302112.051764 -17670997.505429 8137193.139080
-5302112.555999 -17670997.411954 8137193.485274
-5302112.082630 -17670997.399401 8137193.148094
-5302111.990104 -17670997.492486 8137193.092512
-5302111.062711 -17670997.107947 8137191.822286
-5302112.779515 -17670997.487934 8137193.533416
-5302112.798704 -17670997.011557 8137194.029212
-5302112.518375 -17670997.529021 8137193.418782
-5302108.831505 -17670996.528619 8137187.620113
-5302112.278382 -17670997.642687 8137193.289683
-5302112.131822 -17670997.669428 8137193.222635
-5302111.842785 -17670997.391921 8137192.931002
-5302112.686476 -17670997.498841 8137193.501381
-5302112.007641 -17670997.471838 8137193.100906
-5302112.423426 -17670997.469389 8137193.389370
-5302112.163277 -17670997.535182 8137193.217475
-5302111.321749 -17670997.505281 8137192.681328
-5302112.015391 -17670997.394539 8137193.089015
-5302112.582993 -17670997.449606 8137193.482423
-5302111.900256 -17670997.399280 8137192.987948
-5302112.556677 -17670997.399812 8137193.491041
-5302112.669447 -17670997.526834 8137193.479437
-5302112.104232 -17670997.581024 8137193.191594
-5302112.103716 -17670997.491904 8137193.174566
-5302111.078208 -17670997.112250 8137191.849518
-5302112.104792 -17670997.578080 8137193.188258
-5302112.639930 -17670997.324113 8137193.581467
-5302112.979724 -17670996.440749 8137195.481972
-5302112.413235 -17670997.564490 8137193.359663
-5302112.553629 -17670997.120626 8137193.702773
-5302112.027647 -17670997.441837 8137193.107589
-5302112.652459 -17670997.512504 8137193.481583
-5302112.270837 -17670997.383768 8137193.302100
-5302111.810985 -17670997.021716 8137192.787679
-5302111.595498 -17670997.543838 8137192.860551
-5302112.234207 -17670997.389899 8137193.272336
-5302107.960494 -17670996.380327 8137186.051618
-5302112.648427 -17670997.274163 8137193.622819
-5302109.711478 -17670996.718091 8137189.283071
-5302112.678850 -17670997.460366 8137193.514615
-5302112.703231 -17670997.095085 8137193.845878
-5302112.664451 -17670997.107198 8137193.807451
-5302112.179017 -17670997.682909 8137193.248799
-5302112.633051 -17670997.301493 8137193.597379
-5302112.878294 -17670997.332587 8137193.662119
-5302112.198686 -17670997.478392 8137193.241681
-5302112.159224 -17670997.510871 8137193.216090
-5302112.034564 -17670997.511116 8137193.128100
-5302107.432429 -17670994.886352 8137186.252719
-5302112.616866 -17670997.455766 8137193.492444
-5302112.716968 -17670997.298878 8137193.639306
-5302112.558357 -17670997.530297 8137193.436360
-5302112.524516 -17670997.458748 8137193.448139
-5302112.623303 -17670997.289706 8137193.600531
-5302112.346012 -17670997.056384 8137193.551020
-5302111.818744 -17670997.394953 8137192.909659
-5302112.722932 -17670997.503306 8137193.509746
-5302112.761871 -17670997.088874 8137193.888893
-5302112.653231 -17670997.357731 8137193.566054
-5302112.532896 -17670997.454896 8137193.454514
-5302112.166893 -17670997.503139 8137193.218821
-5302112.173286 -17670997.536491 8137193.224634
-5302111.417599 -17670997.367173 8137192.539705
-5302111.345083 -17670997.409031 8137192.547773
-5302112.125956 -17670997.592681 8137193.205085
-5302112.299350 -17670997.382728 8137193.324831
-5302112.512850 -17670997.368585 8137193.483797
-5302113.038748 -17670996.726064 8137194.825004
-5302111.111534 -17670997.316559 8137192.240581
-5302112.590348 -17670997.451823 8137193.483723
-5302111.655666 -17670997.546040 8137192.896106
-5302107.679080 -17670996.324086 8137185.516079
-5302112.610994 -17670997.510685 8137193.467623
-5302111.055530 -17670997.297034 8137192.164420
-5302112.566126 -17670997.190168 8137193.642870
-5302112.064877 -17670997.413318 8137193.130694
-5302112.039421 -17670997.420806 8137193.114503
-5302111.080803 -17670997.302078 8137192.192579
-5302112.641783 -17670996.209093 8137195.303512
-5302111.335293 -17670997.429654 8137192.570199
-5302111.558078 -17670997.636321 8137192.940294
-5302112.447694 -17670997.386705 8137193.435343
-5302112.611222 -17670997.312045 8137193.575861
-5302111.062245 -17670997.110054 8137191.819223
-5302110.181440 -17670996.800220 8137190.090075
-5302112.722915 -17670997.067525 8137193.896214
-5302112.793776 -17670997.521287 8137193.518535
-5302111.275777 -17670997.439659 8137192.556730
-5302112.622430 -17670997.175356 8137193.697277
-5302112.767095 -17670997.059636 8137193.921902
-5302112.190735 -17670997.710412 8137193.257220
-5302112.067879 -17670997.417379 8137193.136748
-5302112.650392 -17670997.158865 8137193.736834
-5302112.339452 -17670997.382396 8137193.355801
-5302112.774425 -17670997.088864 8137193.894482
-5302111.983392 -17670997.384725 8137193.056255
-5302112.581262 -17670997.438231 8137193.485550
-5302112.071775 -17670997.578906 8137193.170262
-5302112.440085 -17670997.368838 8137193.434071
-5302112.443828 -17670997.369176 8137193.436632
-5302111.059340 -17670997.106105 8137191.815945
-5302111.352713 -17670997.410590 8137192.554049
-5302111.547597 -17670997.468067 8137192.754115
-5302111.478928 -17670997.007461 8137192.507739
-5302111.841107 -17670997.353395 8137193.429971
-5302112.689177 -17670997.105989 8137193.955096
-5302112.381568 -17670997.361784 8137193.709065
-5302112.202391 -17670997.291249 8137193.551291
-5302112.579294 -17670997.378653 8137193.820251
-5302112.715982 -17670997.384860 8137193.884524
-5302111.865773 -17670997.280522 8137193.317445
-5302112.589225 -17670997.275258 8137193.827722
-5302112.657745 -17670997.149647 8137193.906182
-5302112.606282 -17670997.259154 8137193.839602
-5302112.399035 -17670997.382395 8137193.727050
-5302112.767594 -17670996.988146 8137194.121028
-5302111.554627 -17670997.033462 8137192.632542
-5302112.065731 -17670997.239307 8137193.402984
-5302112.719482 -17670997.133364 8137193.961356
-5302112.305081 -17670997.338591 8137193.650296
-5302113.135931 -17670996.526731 8137195.420775
-5302110.851719 -17670996.729730 8137191.103928
-5302112.505713 -17670997.381779 8137193.784182
-5302111.693792 -17670997.287814 8137193.267558
-5302112.168198 -17670996.992809 8137193.368510
-5302112.196906 -17670997.269889 8137193.534244
-5302112.128234 -17670997.245533 8137193.461757
-5302112.316555 -17670996.194170 8137195.340028
-5302112.405633 -17670997.258896 8137193.694415
-5302112.341057 -17670997.263276 8137193.643545
-5302112.414676 -17670997.450055 8137193.759887
-5302111.183327 -17670996.833734 8137191.783030
-5302112.792134 -17670997.341195 8137193.921054
-5302112.653476 -17670997.359158 8137193.859284
-5302112.393582 -17670997.377460 8137193.720937
-5302111.715932 -17670997.249003 8137193.188206
-5302112.186860 -17670996.994450 8137193.394930
-5302112.680287 -17670997.205006 8137193.901744
-5302112.415521 -17670997.248749 8137193.698650
-5302110.808915 -17670996.760015 8137191.145629
-5302112.336239 -17670997.315076 8137193.661178
-5302110.559940 -17670996.715107 8137190.723510
-5302112.069647 -17670997.239302 8137193.408204
-5302112.153766 -17670997.249205 8137193.485265
-5302112.685820 -17670997.295917 8137193.881201
-5302106.911925 -17670995.893347 8137183.451668
-5302112.664479 -17670997.114682 8137193.930253
-5302112.684515 -17670997.119109 8137193.943923
-5302112.433325 -17670997.263554 8137193.716629
-5302112.614984 -17670997.308692 8137193.841572
-5302112.577756 -17670997.361675 8137193.820060
-5302111.026558 -17670996.744369 8137191.384378
-5302112.714710 -17670997.346450 8137193.887764
-5302112.718194 -17670997.345719 8137193.889470
-5302112.276478 -17670997.460966 8137193.708779
-5302112.559852 -17670997.093077 8137193.847850
-5302112.446419 -17670997.250581 8137193.723969
-5302112.744537 -17670997.037103 8137194.056508
-5302112.226304 -17670997.324966 8137193.591923
-5302112.601081 -17670997.277482 8137193.839243
-5302112.425789 -17670997.264501 8137193.711696
-5302112.196643 -17670997.244979 8137193.517896
-5302111.842709 -17670997.222395 8137193.214993
-5302112.265594 -17670997.344059 8137193.629335
-5302112.746081 -17670997.312891 8137193.907140
-5302112.204298 -17670997.267574 8137193.538521
-5302112.086125 -17670997.235620 8137193.419025
-5302106.707094 -17670995.849996 8137183.077302
-5302112.379939 -17670997.361618 8137193.708329
-5302111.885175 -17670997.393658 8137193.505320
-5302111.537429 -17670997.158783 8137192.902708
-5302111.479469 -17670996.886442 8137192.281088
-5302111.555115 -17670997.167403 8137192.936185
-5302112.750860 -17670997.348064 8137193.903973
-5302112.597548 -17670997.309210 8137193.829967
-5302112.592292 -17670997.288092 8137193.827982
-5302112.618488 -17670997.361760 8137193.840657
-5302111.670158 -17670997.251041 8137193.179822
-5302112.707431 -17670997.319090 8137193.888436
-5302110.689930 -17670996.685034 8137190.783206
-5302111.613420 -17670997.037008 8137192.693925
-5302111.245854 -17670996.953115 8137192.150071
-5302111.520912 -17670997.153174 8137192.885045
-5302112.689591 -17670997.089653 8137193.967126
-5302112.611238 -17670997.080556 8137193.900614
-5302107.214866 -17670995.958902 8137184.048752
-5302112.675142 -17670997.205296 8137193.898675
-5302112.505309 -17670997.312152 8137193.772097
-5302111.772955 -17670997.272559 8137193.258948
-5302112.464830 -17670997.249071 8137193.740205
-5302111.839515 -17670997.350759 8137193.425624
-5302112.078113 -17670997.239725 8137193.413774
-5302112.270049 -17670997.346529 8137193.633371
-5302111.461124 -17670996.898273 8137192.281609
-5302111.709213 -17670997.297405 8137193.291828
-5302110.663115 -17670996.747188 8137190.938730
-5302111.766733 -17670997.270614 8137193.254227
-5302112.833812 -17670997.413502 8137193.918854
-5302112.211419 -17670997.244141 8137193.528176
-5302111.058413 -17670996.899065 8137191.825888
-5302112.318007 -17670997.361755 8137193.669318
-5302112.276962 -17670997.365604 8137193.648816
-5302112.213338 -17670997.280142 8137193.553530
-5302111.905050 -17670997.297169 8137193.361989
-5302112.610034 -17670997.083267 8137193.897127
-5302110.928990 -17670996.787381 8137191.355526
-5302112.637160 -17670997.322884 8137193.853138
-5302112.583365 -17670997.247350 8137193.827126
-5302112.445111 -17670997.250351 8137193.722653
-5302112.397508 -17670997.379706 8137193.724548
-5302112.619382 -17670997.279517 8137193.845108
-5302111.362283 -17670996.820648 8137192.011552
-5302111.180902 -17670996.831983 8137191.778633
-5302112.250929 -17670997.250593 8137193.566422
-5302112.207172 -17670997.299886 8137193.562008
-5302112.613931 -17670997.271612 8137193.843090
-5302111.589701 -17670997.197749 8137193.024352
-5302112.606533 -17670997.129856 8137193.873007
-5302112.292171 -17670997.387043 8137193.670355
-5302112.540499 -17670997.098437 8137193.827403
-5302112.197412 -17670997.270875 8137193.535307
-5302112.664153 -17670997.260665 8137193.877518
-5302111.877781 -17670996.890809 8137192.875704
-5302104.529453 -17670994.073587 8137181.098821
-5302112.599194 -17670997.071293 8137193.892604
-5302112.833517 -17670997.419828 8137193.917712
-5302112.585146 -17670997.282531 8137193.823870
-5302112.771861 -17670997.056934 8137194.054321
-5302112.662064 -17670997.206248 8137193.888722
-5302111.671833 -17670997.251885 8137193.182502
-5302112.685312 -17670997.186195 8137193.911760
-5302112.606618 -17670997.088761 8137193.883269
-5302111.699994 -17670997.039923 8137192.798179
-5302110.455277 -17670996.693401 8137190.544308
-5302112.677002 -17670997.348671 8137193.868723
-5302111.522316 -17670997.154365 8137192.888991
-5302112.304746 -17670997.338121 8137193.649761
-5302111.854221 -17670997.208242 8137193.196576
-5302112.637326 -17670997.308395 8137193.852648
-5302112.708870 -17670997.347639 8137193.885702
-5302112.600683 -17670997.126402 8137193.870375
-5302112.311100 -17670997.331668 8137193.651816
-5302111.139741 -17670996.848892 8137191.766444
-5302112.689811 -17670997.184944 8137193.914877
-5302112.548183 -17670997.251199 8137193.801001
-5302111.556363 -17670997.033563 8137192.639182
-5302112.683250 -17670997.127742 8137193.937439
-5302111.872548 -17670997.226893 8137193.239565
-5302111.948500 -17670997.337507 8137193.440274
-5302111.580548 -17670997.027489 8137192.648070
-5302111.015894 -17670996.743615 8137191.365752
-5302112.313847 -17670996.195392 8137195.341300
-5302112.221580 -17670997.327777 8137193.589442
-5302112.612696 -17670997.278328 8137193.841461
-5302112.243216 -17670996.142791 8137195.176485
-5302112.736942 -17670997.345745 8137193.896908
-5302112.707126 -17670997.419050 8137193.877184
-5302107.150144 -17670995.940525 8137183.931950
-5302112.465506 -17670997.246304 8137193.737976
-5302113.138687 -17670996.683524 8137195.078038
-5302112.308038 -17670997.327456 8137193.647243
-5302112.622816 -17670997.378446 8137193.842939
-5302111.677390 -17670997.035694 8137192.771587
-5302111.480610 -17670997.006491 8137192.504844
-5302112.707673 -17670997.110481 8137193.967009
-5302111.567037 -17670997.037876 8137192.652038
-5302112.785971 -17670997.308594 8137193.927336
-5302112.579423 -17670997.379505 8137193.820390
-5302111.700048 -17670997.037777 8137192.796271
-5302112.620710 -17670997.360919 8137193.840938
-5302112.699701 -17670997.062334 8137193.992075
-5302111.899996 -17670997.331299 8137193.412387
-5302112.232389 -17670997.242951 8137193.546708
-5302112.748798 -17670997.312825 8137193.909164
-5302113.133717 -17670996.531172 8137195.423147
-5302111.722973 -17670997.235420 8137193.167262
-5302112.670621 -17670997.307538 8137193.871280
-5302112.671341 -17670997.098136 8137193.944988
-5302112.245669 -17670997.263211 8137193.568769
-5302112.849178 -17670997.319644 8137193.950915
-5302112.708556 -17670997.318666 8137193.888654
-5302112.183741 -17670997.261352 8137193.516246
-5302112.591082 -17670997.074405 8137193.881972
-5302112.590349 -17670997.309539 8137193.826910
-5302112.199561 -17670997.300442 8137193.556928
-5302111.560660 -17670997.035252 8137192.646130
-5302110.853436 -17670996.728024 8137191.110138
-5302112.179723 -17670997.239387 8137193.498400
-5302112.414052 -17670997.251554 8137193.699484
-5302112.658738 -17670997.351041 8137193.861419
-5302112.847157 -17670997.309874 8137193.950714
-5302110.832233 -17670996.854347 8137191.482311
-5302112.572913 -17670997.258534 8137193.817967
-5302111.290779 -17670996.966100 8137192.236339
-5302112.520209 -17670997.246281 8137193.779802
-5302112.660651 -17670997.315200 8137193.865008
-5302112.601556 -17670997.266557 8137193.836474
-5302112.512605 -17670997.314332 8137193.779234
-5302112.202142 -17670997.299655 8137193.558242
-5302112.266804 -17670997.314519 8137193.612989
-5302112.395003 -17670997.380528 8137193.722729
-5302112.282707 -17670997.454949 8137193.707578
-5302112.507930 -17670997.378906 8137193.785432
-5302113.018865 -17670996.985087 8137194.257479
-5302112.505810 -17670997.311036 8137193.773472
-5302111.044835 -17670996.897897 8137191.805101
-5302112.358845 -17670997.308929 8137193.674823
-5302112.665164 -17670997.081901 8137193.949088
-5302112.598308 -17670997.072408 8137193.891344
-5302112.574366 -17670997.078570 8137193.865742
-5302112.723988 -17670997.371671 8137193.887358
-5302112.614871 -17670997.353666 8137193.837822
-5302112.837357 -17670997.412515 8137193.920612
-5302112.754915 -17670997.354035 8137193.902631
-5302112.606141 -17670997.123411 8137193.874085
-5302111.339515 -17670996.861332 8137192.047088
-5302112.750022 -17670997.036386 8137194.057768
-5302112.836641 -17670997.421198 8137193.917519
-5302111.776473 -17670997.258845 8137193.235088
-5302112.779737 -17670997.060802 8137194.055227
-5302112.495725 -17670997.365188 8137193.775010
-5302111.465579 -17670996.898774 8137192.285840
-5302112.205940 -17670997.242654 8137193.524252
-5302111.416227 -17670996.977604 8137192.374799
-5302112.478861 -17670997.311366 8137193.757121
-5302110.862398 -17670996.859000 8137191.531696
-5302112.199141 -17670997.270107 8137193.535613
-5302112.625939 -17670997.360493 8137193.844636
-5302112.698039 -17670997.295564 8137193.887495
-5302112.492753 -17670997.311818 8137193.765513
-5302112.353421 -17670997.247096 8137193.649418
-5302112.614089 -17670997.279835 8137193.842178
-5302112.301112 -17670997.439637 8137193.704756
-5302112.641815 -17670997.309095 8137193.855362
-5302087.484361 -17670990.308069 8137149.521575
-5302112.553367 -17670997.256140 8137193.804488
-5302112.240918 -17670997.252427 8137193.559025
-5302112.742032 -17670997.308440 8137193.908763
-5302111.623972 -17670997.227778 8137193.114480
-5302113.139669 -17670996.680932 8137195.085091
-5302112.381329 -17670997.389075 8137193.719449
-5302111.860253 -17670997.211283 8137193.208522
-5302112.616149 -17670997.122536 8137193.884097
-5302111.039918 -17670996.826301 8137191.599424
-5302113.134309 -17670996.528038 8137195.418289
-5302112.679347 -17670997.221321 8137193.896057
-5302111.262387 -17670996.787432 8137191.808297
-5302112.676752 -17670997.118385 8137193.935842
-5302112.569594 -17670997.258959 8137193.816583
-5302112.318056 -17670997.348898 8137193.663351
-5302112.314299 -17670997.337859 8137193.657078
-5302112.275332 -17670997.378556 8137193.656098
-5302112.384719 -17670997.394182 8137193.723966
-5302112.407907 -17670997.427367 8137193.748730
-5302112.407322 -17670997.428319 8137193.748948
-5302112.603141 -17670997.277112 8137193.838387
-5302112.572723 -17670997.250357 8137193.818447
-5302111.248857 -17670996.953495 8137192.153345
-5302112.588732 -17670997.280823 8137193.825766
-5302112.787835 -17670997.344925 8137193.917502
-5302112.264256 -17670997.249312 8137193.576877
-5302112.621400 -17670997.361334 8137193.842800
-5302112.608327 -17670997.080330 8137193.897025
-5302112.199426 -17670997.290845 8137193.550253
-5302112.264334 -17670997.345912 8137193.630577
-5302111.565094 -17670997.037474 8137192.650777
-5302112.251453 -17670997.375498 8137193.640644
-5302111.713618 -17670997.048118 8137192.814436
-5302111.847867 -17670997.222608 8137193.221350
-5302112.557088 -17670997.085300 8137193.848242
-5302112.265127 -17670997.343203 8137193.628610
-5302112.248359 -17670997.374349 8137193.638177
-5302112.597510 -17670997.267247 8137193.831224
-5302112.258260 -17670997.328292 8137193.614973
-5302111.514874 -17670997.157802 8137192.898807
-5302112.207424 -17670997.299273 8137193.561752
-5302111.776447 -17670997.210228 8137193.148465
-5302112.597059 -17670997.241604 8137193.836369
-5302112.509479 -17670997.379321 8137193.785236
-5302111.475647 -17670996.898878 8137192.300565
-5302112.555756 -17670997.261638 8137193.806850
-5302112.643329 -17670997.354713 8137193.853355
-5302112.263415 -17670997.002622 8137193.502794
-5302112.758600 -17670997.059446 8137194.042835
-5302112.283691 -17670997.247546 8137193.590230
-5302111.766013 -17670997.270242 8137193.252967
-5302112.694372 -17670997.295166 8137193.886204
-5302111.877099 -17670997.283763 8137193.327364
-5302112.593203 -17670997.310174 8137193.827141
-5302112.673565 -17670997.293416 8137193.876717
-5302112.271254 -17670997.332409 8137193.626118
-5302111.034191 -17670996.893655 8137191.787777
-5302111.722208 -17670997.236455 8137193.167281
-5302112.787696 -17670997.342249 8137193.916796
-5302112.729467 -17670997.057072 8137194.021823
-5302112.635681 -17670997.307641 8137193.852045
-5302112.381406 -17670997.360169 8137193.707383
-5302112.382506 -17670997.393954 8137193.723034
-5302113.025223 -17670996.981309 8137194.265595
-5302112.695569 -17670997.351766 8137193.879426
-5302104.348191 -17670994.034659 8137180.768308
-5302112.653311 -17670997.196683 8137193.878630
-5302112.290951 -17670996.178802 8137195.285382
-5302112.722317 -17670997.370643 8137193.888072
-5302112.686929 -17670997.186647 8137193.913924
-5302112.528055 -17670997.258499 8137193.786521
-5302111.793486 -17670997.220477 8137193.176020
-5302112.194796 -17670997.249289 8137193.519101
-5302112.630817 -17670997.376083 8137193.850938
-5302112.694668 -17670997.211663 8137193.908970
-5302112.691790 -17670997.126987 8137193.944980
-5302112.218335 -17670997.328740 8137193.589204
-5302112.271663 -17670997.317344 8137193.618116
-5302111.681067 -17670997.035477 8137192.775372
-5302112.667021 -17670997.310262 8137193.869388
-5302112.680151 -17670997.349084 8137193.871252
-5302112.639028 -17670997.353971 8137193.850994
-5302111.295401 -17670996.794472 8137191.867799
-5302111.004688 -17670996.739090 8137191.345003
-5302112.409105 -17670997.249925 8137193.695764
-5302112.322976 -17670996.209268 8137195.392454
-5302112.780447 -17670997.021918 8137194.094600
-5302112.717452 -17670997.379724 8137193.883864
-5302112.693504 -17670997.294300 8137193.886107
-5302112.793502 -17670997.351517 8137193.922856
-5302112.300021 -17670997.439268 8137193.705151
-5302111.845906 -17670997.286021 8137193.317722
-5302105.412816 -17670995.594432 8137180.655524
-5302111.849585 -17670997.286422 8137193.318511
-5302112.222776 -17670997.284173 8137193.563212
-5302112.202765 -17670997.247479 8137193.524578
-5302112.579339 -17670997.247759 8137193.824084
-5302112.773003 -17670997.055106 8137194.058357
-5302112.202082 -17670997.271378 8137193.537472
-5302113.123278 -17670996.533573 8137195.463671
-5302111.679135 -17670997.037389 8137192.773796
-5302112.422204 -17670996.162458 8137195.273289
-5302112.378303 -17670997.362964 8137193.707718
-5302112.113351 -17670997.249502 8137193.452561
-5302112.366022 -17670997.259146 8137193.662002
-5302112.655080 -17670997.285939 8137193.865353
-5302112.627036 -17670997.356683 8137193.843778
-5302112.705424 -17670997.363625 8137193.880449
-5302112.580630 -17670997.358610 8137193.821152
-5302112.335170 -17670997.450922 8137193.726936
-5302111.545747 -17670997.031477 8137192.614643
-5302112.581035 -17670997.243754 8137193.825871
-5302112.318581 -17670997.327456 8137193.653949
-5302111.200285 -17670996.854417 8137191.853532
-5302112.604675 -17670997.266926 8137193.838466
-5302112.677962 -17670997.349908 8137193.870925
-5302111.560236 -17670997.168812 8137192.941650
-5302112.252305 -17670997.253116 8137193.568757
-5302112.585118 -17670997.247007 8137193.826523
-5302112.240886 -17670997.261517 8137193.561755
-5302112.487187 -17670997.312441 8137193.763223
-5302112.148160 -17670997.284085 8137193.509544
-5302112.672442 -17670997.291069 8137193.874411
-5302112.507868 -17670997.377946 8137193.785542
-5302112.274474 -17670997.460681 8137193.708113
-5302110.592242 -17670996.720460 8137190.780685
-5302112.297340 -17670997.449939 8137193.709638
-5302112.311159 -17670996.191129 8137195.332630
-5302112.614000 -17670997.354815 8137193.838357
-5302111.876918 -17670997.227970 8137193.243874
-5302112.393834 -17670997.380920 8137193.723083
-5302112.789216 -17670997.309166 8137193.927832
-5302111.519958 -17670997.167940 8137192.930101
-5302110.584938 -17670996.720406 8137190.764512
-5302111.462784 -17670997.000615 8137192.472452
-5302111.839799 -17670997.353159 8137193.429461
-5302111.728742 -17670997.236779 8137193.172287
-5302112.286398 -17670997.367593 8137193.654508
-5302112.577932 -17670997.075939 8137193.869307
-5302111.870366 -17670997.282778 8137193.321742
-5302112.302288 -17670997.439189 8137193.705419
-5302112.167647 -17670997.310291 8137193.541800
-5302111.714728 -17670997.245818 8137193.184352
-5302112.718658 -17670997.124022 8137193.966619
-5302112.586538 -17670997.228977 8137193.830760
-5302112.657664 -17670997.352618 8137193.860619
-5302112.711097 -17670997.416576 8137193.876730
-5302112.656427 -17670997.290744 8137193.868815
-5302112.713415 -17670997.417580 8137193.879920
-5302111.877399 -17670997.285702 8137193.332211
-5302112.605426 -17670997.128509 8137193.872058
-5302112.278044 -17670997.377713 8137193.656979
-5302112.616069 -17670997.091253 8137193.897528
-5302112.579679 -17670997.379253 8137193.821132
-5302112.652142 -17670997.213965 8137193.880012
-5302112.786139 -17670997.057341 8137194.065583
-5302112.225902 -17670997.321603 8137193.589329
-5302113.143226 -17670996.661773 8137195.270814
-5302112.233694 -17670997.324453 8137193.596471
-5302112.301295 -17670997.448119 8137193.710140
-5302112.515046 -17670996.894065 8137193.927824
-5302112.425400 -17670997.263060 8137193.711121
-5302112.602601 -17670997.115751 8137193.874025
-5302112.734795 -17670997.315508 8137193.902395
-5302112.257060 -17670997.248971 8137193.570356
-5302111.400814 -17670997.123291 8137192.759938
-5302112.289962 -17670997.383747 8137193.666962
-5302112.661958 -17670997.113840 8137193.928042
-5302112.499860 -17670997.251732 8137193.764483
-5302112.703635 -17670997.095045 8137193.973497
-5302113.137455 -17670996.685196 8137195.078325
-5302111.687761 -17670996.802896 8137192.487363
-5302111.321173 -17670996.815032 8137191.941078
-5302112.592193 -17670997.242348 8137193.832886
-5302112.602454 -17670997.090557 8137193.886013
-5301965.321329 -17670998.342859 8137119.163176
-5301913.219639 -17670955.808868 8137059.632635
-5301967.329263 -17671013.919441 8137051.342578
-5301974.812796 -17671021.595271 8137109.527161
-5301928.733081 -17670978.209356 8137127.766669
-5301870.142816 -17670921.983002 8137048.549248
-5301918.277148 -17671017.501816 8137031.623066
-5301782.937589 -17670999.707211 8137024.642211
-5301937.812256 -17671078.832159 8136938.443855
-5302055.505596 -17671006.794206 8137158.627754
-5302019.159431 -17671012.648589 8137136.235212
-5301968.828729 -17670966.398655 8137123.110305
-5302030.556881 -17671006.782761 8137144.084464
-5301890.481565 -17670979.768473 8137069.852384
-5301979.240416 -17671001.159909 8137125.802099
-5302058.496214 -17671006.811113 8137160.052493
-5301989.068815 -17670979.238847 8137122.795422
-5301847.682797 -17670948.997673 8137054.081601
-5301890.393845 -17671020.669257 8137049.681048
-5301994.280438 -17671007.626210 8137120.618135
-5302065.556910 -17671008.104868 8137163.258617
-5302062.785411 -17671039.757782 8137134.546468
-5302003.734332 -17671003.274909 8137088.809850
-5302018.709943 -17670986.668855 8137140.786243
-5301910.279933 -17670993.569918 8137124.240578
-5301940.792822 -17671024.560357 8137009.167113
-5302033.740457 -17671058.656222 8137106.273607
-5301938.423749 -17671077.144925 8136940.906005
-5301762.309692 -17670967.384208 8137052.805038
-5302063.518210 -17671000.029264 8137168.894557
-5301944.762381 -17671019.211173 8137026.734037
-5301975.731794 -17671042.868866 8137087.826604
-5302043.982167 -17671000.392827 8137128.600589
-5302027.792839 -17670989.397537 8137157.516893
-5301836.933183 -17670982.304206 8136959.398632
-5301835.447069 -17670943.533635 8137053.106640
-5302001.286866 -17671054.670701 8136993.286970
-5301918.863952 -17671028.065917 8137017.260382
-5302001.786169 -17671019.656603 8137120.023467
-5301923.561701 -17670974.307443 8137114.633726
-5301876.580736 -17671014.529046 8136966.152451
-5301967.626037 -17671067.026500 8136943.204732
-5302004.359136 -17670988.546172 8137105.977556
-5301905.286883 -17670953.324730 8137053.807693
-5301980.191584 -17671026.101654 8137103.234840
-5302059.713003 -17671000.126850 8137167.100745
-5301977.714066 -17670989.430260 8137083.977451
-5301903.415840 -17670967.670559 8137065.177179
-5301840.296778 -17670915.157201 8137017.081440
-5301844.575292 -17670989.018809 8136974.941345
-5301950.124819 -17671019.855664 8137034.456568
-5302003.066912 -17671021.798184 8137117.134051
-5301945.718353 -17670971.618144 8137089.006361
-5302081.047973 -17671002.612791 8137178.803237
-5301833.203952 -17670968.527743 8137028.647961
-5301993.916523 -17671022.819105 8137113.107653
-5302028.816804 -17671002.268488 8137144.662033
-5302007.995557 -17671017.159538 8137125.577255
-5302023.768452 -17670989.764270 8137122.778951
-5301856.492060 -17670949.646304 8137054.795720
-5302080.080214 -17670998.600042 8137180.825465
-5302049.466284 -17670998.834082 8137134.268685
-5301849.290647 -17670923.017126 8137023.778813
-5301965.101789 -17671016.176520 8137046.698037
-5302056.413299 -17670993.397753 8137172.011673
-5301988.148210 -17671024.953338 8137106.136114
-5301965.114007 -17671001.237974 8137118.233885
-5301858.536362 -17670961.400277 8137036.053459
-5302046.225204 -17670997.744569 8137162.562904
-5301988.837504 -17671062.216742 8136969.430669
-5302036.389102 -17670991.306749 8137168.972381
-5302021.096636 -17671005.475598 8137136.988420
-5302048.022608 -17671005.019028 8137157.574984
-5301905.312381 -17670948.947714 8137049.819114
-5302022.921726 -17670988.075651 8137144.582248
-5301923.086307 -17670986.780418 8137035.043768
-5302009.343804 -17671006.087875 8137134.325279
-5301906.425360 -17670965.049511 8137063.324839
-5302030.249013 -17671006.837155 8137143.764965
-5301939.529586 -17670988.982944 8137103.946082
-5302025.598566 -17671069.593596 8137091.749212
-5301935.066690 -17670990.634832 8137049.931589
-5301981.772300 -17671048.635973 8137086.726215
-5301953.555515 -17671019.916554 8137040.085283
-5302015.601695 -17670987.632939 8137140.274288
-5302017.267950 -17671036.520112 8137110.108407
-5301883.508339 -17670932.329050 8137046.498928
-5301934.809508 -17671022.947240 8137001.273286
-5301832.643274 -17670977.699365 8136963.097450
-5301936.095423 -17671073.410963 8137036.870513
-5301871.672214 -17671043.541034 8137038.428395
-5302031.235655 -17671002.120042 8137149.699975
-5301754.939082 -17670940.058677 8136987.135130
-5301993.869586 -17670989.929893 8137098.042289
-5302021.745034 -17670989.585798 8137145.702349
-5302008.711064 -17671012.813059 8137083.239101
-5302065.881695 -17671008.128889 8137162.644895
-5301892.670393 -17671134.321952 8136970.116799
-5301999.469590 -17671051.483654 8136998.980879
-5301811.864968 -17670919.704916 8137030.356159
-5302038.835888 -17671027.252878 8137129.463167
-5302074.180286 -17670998.767063 8137175.421880
-5301931.881546 -17670986.914937 8137042.206954
-5301832.160704 -17670982.616154 8136961.114239
-5301749.419084 -17670921.332561 8137011.381085
-5302022.520667 -17671005.635877 8137136.271217
-5302033.670850 -17671022.502506 8137135.440359
-5301996.892920 -17671091.493605 8137057.481609
-5301881.974625 -17670928.115420 8137045.238386
-5301908.117587 -17670940.347551 8137039.082871
-5302078.812094 -17671003.327364 8137178.438595
-5301976.546115 -17671006.167517 8137071.525204
-5302002.137178 -17671023.512408 8137118.255340
-5301891.295844 -17671013.303929 8136981.258436
-5302009.722141 -17671003.427004 8137102.136789
-5302028.046448 -17670992.919541 8137126.774314
-5302010.120418 -17671009.946982 8137124.862002
-5302044.985875 -17671009.704349 8137153.241902
-5302058.576173 -17670994.079014 8137169.106423
-5301914.437826 -17670958.948975 8137056.779217
-5301898.778940 -17670952.928787 8137049.561155
-5301945.241215 -17670991.848397 8137109.624569
-5301842.518056 -17670981.707322 8137095.105248
-5302048.925362 -17671006.925706 8137155.327824
-5302009.909896 -17671023.048016 8137119.292031
-5302019.432389 -17671040.680611 8137058.613867
-5301974.158872 -17670965.317947 8137128.189982
-5302056.410065 -17671008.464847 8137165.907595
-5301894.377107 -17670933.580823 8137042.061851
-5302066.696489 -17670999.081647 8137168.963487
-5301947.347698 -17671066.093376 8137046.320444
-5302051.468451 -17671020.439837 8137145.560349
-5301870.702185 -17671051.291826 8137062.273397
-5301829.027254 -17670979.397277 8136954.168587
-5301964.174879 -17670979.625152 8137107.236265
-5302016.828801 -17671029.106582 8137119.670294
-5302021.531912 -17671035.997269 8137061.337728
-5302088.991527 -17671001.098738 8137184.064276
-5301875.616897 -17670957.817753 8137058.237922
-5302074.443407 -17671003.893807 8137175.334331
-5301908.190138 -17670971.924743 8137112.769703
-5302024.877151 -17671013.870454 8137140.111813
-5301821.553877 -17670947.436520 8137053.698928
-5301975.813097 -17670975.119269 8137108.118786
-5301985.318807 -17671004.533270 8137119.086054
-5301957.735238 -17671077.944778 8136914.155085
-5301891.904459 -17671019.129230 8136961.783085
-5301892.578641 -17670969.478081 8137065.229246
-5301832.264486 -17671028.019915 8137021.700242
-5302099.378263 -17670999.460650 8137186.911047
-5302044.381093 -17671014.017215 8137147.322590
-5301876.961346 -17671015.130361 8137058.903361
-5301948.571258 -17670966.638495 8137102.471836
-5302050.250424 -17670991.456970 8137169.699844
-5301971.949081 -17670986.499270 8137079.032836
-5301970.372209 -17671007.632089 8137060.579156
-5302003.908531 -17671048.120639 8137039.405207
-5301973.429139 -17671038.230768 8137088.985588
-5301997.417831 -17671020.685380 8137116.897196
-5301930.986510 -17670958.860464 8137103.888076
-5302016.192827 -17671074.194992 8137084.635816
-5302052.653396 -17671008.494067 8137161.975989
-5302015.216247 -17671006.262505 8137131.403317
-5301964.937675 -17670979.658238 8137105.619175
-5302061.482368 -17671007.259047 8137167.834533
-5301926.028073 -17670984.039917 8137041.215339
-5301992.966297 -17670994.635000 8137153.968712
-5301802.724150 -17671031.156062 8137006.225976
-5302060.812936 -17671007.291893 8137167.565694
-5301883.928941 -17671010.107588 8136981.688583
-5301768.370693 -17670974.564013 8137040.675984
-5301988.236968 -17671013.834689 8137077.554870
-5301945.646085 -17670971.422571 8137122.766819
-5301872.993685 -17671017.036729 8137053.591782
-5301939.491507 -17670968.147875 8137101.754248
-5302044.451404 -17670996.293856 8137162.600514
-5301860.304075 -17671018.180471 8136958.644364
-5301981.565056 -17671005.708882 8137076.188598
-5302025.058448 -17670998.382224 8137160.566890
-5301854.988362 -17671017.673021 8136950.212729
-5301988.332955 -17671002.113490 8137073.764092
-5301859.285672 -17670993.914349 8137111.232290
-5302053.981857 -17671000.293328 8137162.975249
-5302043.885704 -17671002.119556 8137162.111371
-5301894.200471 -17670950.800176 8137085.544933
-5301871.356007 -17670978.675008 8137063.106367
-5301955.099789 -17670984.572034 8137134.072972
-5301850.495349 -17671083.937397 8136992.851491
-5301981.114829 -17671025.782235 8137103.985488
-5301917.531286 -17671166.374606 8136953.863575
-5301970.458173 -17671023.565345 8137101.267539
-5302022.257717 -17670993.162133 8137150.051419
-5302017.695016 -17671006.595262 8137137.726500
-5301849.821653 -17671042.976322 8137025.175417
-5302026.931047 -17670982.105675 8137149.509298
-5301902.902176 -17671084.968380 8137004.430935
-5302037.014126 -17670985.886045 8137156.657024
-5301820.529680 -17670968.308340 8137107.152803
-5301919.178586 -17670974.426434 8137112.860032
-5302022.505712 -17670998.419241 8137152.477308
-5301853.798838 -17670985.943222 8137057.972524
-5302017.650759 -17671014.322830 8137133.131621
-5301832.400642 -17670937.907058 8137053.952507
-5301938.550688 -17670988.944910 8137103.419831
-5302058.525024 -17671016.981229 8137153.063508
-5301902.088622 -17670987.464617 8137083.813302
-5301939.654734 -17670999.238063 8137108.862679
-5301840.985671 -17671010.232784 8136929.317095
-5301859.275055 -17671103.689753 8136965.845324
-5301781.433751 -17670972.566797 8137007.267488
-5301843.251920 -17671046.051075 8137027.515880
-5302014.482332 -17670990.223529 8137153.648152
-5301918.236355 -17670942.615681 8137069.484861
-5301977.742887 -17670986.922218 8137083.824144
-5301942.950721 -17671050.841000 8137065.518528
-5301792.708304 -17671061.202984 8136978.329404
-5301850.793391 -17670989.288621 8136979.964822
-5301946.325796 -17670975.027179 8137138.002354
-5301806.785120 -17671053.539441 8137002.583298
-5301840.487444 -17671015.017720 8136926.200808
-5301924.785561 -17670993.888534 8137042.688023
-5301990.290713 -17671008.071835 8137122.718089
-5302009.364088 -17670986.609801 8137157.505119
-5301948.506112 -17671034.364400 8137079.420034
-5302028.372738 -17670998.831835 8137152.142074
-5302057.259334 -17670991.867093 8137166.013900
-5301864.498791 -17670975.450920 8137051.751139
-5301747.289637 -17670932.260565 8136997.045120
-5301921.034617 -17671141.323890 8136979.927062
-5301879.976748 -17670983.885380 8137068.265572
-5302048.982727 -17671005.252234 8137157.801210
-5301941.471679 -17671088.909003 8137034.516619
-5302014.511466 -17671005.219860 8137146.901846
-5302004.519024 -17670985.476094 8137143.974604
-5301786.964115 -17671023.959678 8137011.195912
-5302008.220053 -17670978.606373 8137136.799069
-5302067.233667 -17671000.257450 8137169.428178
-5301816.188840 -17671063.927352 8137031.517685
-5301949.803952 -17671082.700483 8136899.450592
-5302001.366696 -17671017.824990 8137122.581874
-5301977.982743 -17670989.162166 8137124.018730
-5301929.354796 -17670965.047727 8137106.874139
-5301982.989434 -17671019.787579 8137115.966471
-5301933.229104 -17670974.241516 8137089.577892
-5301854.015325 -17671049.393746 8137020.099923
-5301811.672384 -17670931.768284 8137043.922523
-5301987.782090 -17671010.143625 8137112.660638
-5301975.327299 -17670968.073178 8137102.536559
-5301952.722130 -17671030.654492 8137036.498976
-5301827.914014 -17671061.250192 8137038.279004
-5301910.195584 -17670981.120201 8137085.072741
-5301893.569025 -17670937.529024 8137028.503301
-5301884.147433 -17670993.332747 8137114.704661
-5302039.021680 -17670992.524107 8137167.142557
-5301991.990548 -17670981.786321 8137144.613134
-5301781.402983 -17670982.094121 8137025.112260
-5301992.253779 -17671015.799211 8137118.434724
-5301941.789870 -17670979.544176 8137094.551934
-5301904.989605 -17670977.490496 8137118.181393
-5301785.559910 -17670947.172651 8137050.796169
-5301997.790296 -17671006.415216 8137089.988381
-5301977.859032 -17671010.742961 8137114.454032
-5301935.847748 -17670975.991139 8137119.979208
-5302067.694482 -17671005.609217 8137170.979013
-5301968.201279 -17671033.760966 8137093.240445
-5302051.937269 -17670999.874216 8137160.052435
-5301976.898440 -17671011.353120 8137105.301513
-5302023.944719 -17671012.219673 8137141.577158
-5301880.551847 -17670973.783621 8137109.546516
-5302029.026100 -17670993.620930 8137153.553029
-5301915.095083 -17670964.053697 8137081.336165
-5301867.457206 -17670971.695257 8137101.828552
-5301776.705355 -17670903.449920 8136980.878445
-5301892.396219 -17670979.460130 8137094.186834
-5302033.191361 -17670990.859229 8137162.016614
-5302011.054365 -17670977.301546 8137138.817589
-5301884.119939 -17671102.431674 8136858.925619
-5301919.204472 -17670964.949977 8137089.845654
-5301783.569433 -17670923.535728 8137026.976185
-5301880.818358 -17671031.184513 8136968.412835
-5301982.106343 -17670980.824441 8137140.198742
-5301799.927607 -17670878.978514 8136983.929995
-5302006.900815 -17671017.627739 8137128.496169
-5302028.000479 -17671010.759332 8137141.597698
-5302078.888403 -17670998.648447 8137177.732289
-5301788.236666 -17670987.697126 8137027.899918
-5301939.064212 -17670983.157062 8137097.705814
-5301874.298180 -17671197.478570 8136909.231215
-5302103.365281 -17670996.415808 8137192.637976
-5302006.442282 -17671017.236493 8137128.641972
-5301847.204040 -17670951.252027 8137066.847502
-5301876.269130 -17671178.056183 8136929.446957
-5301963.939504 -17671068.920482 8137060.150840
-5302053.556462 -17671001.299600 8137167.075880
-5301979.793195 -17671060.119253 8137003.059644
-5301928.980268 -17671061.376590 8137088.850278
-5301878.859770 -17671089.905748 8137000.889183
-5302045.328363 -17671004.860992 8137153.524819
-5301896.241006 -17671012.949615 8136984.512745
-5301993.700224 -17670975.841645 8137134.554096
-5302006.128340 -17670985.038899 8137153.400179
-5301836.753494 -17670945.283456 8137002.169237
-5302062.689660 -17671000.045450 8137167.477853
-5301941.211672 -17671035.404304 8137075.597336
-5301878.173771 -17670951.498168 8137075.257306
-5302075.078080 -17670999.265824 8137173.027316
-5301925.278149 -17671084.106964 8136920.197877
-5302053.818981 -17670989.673495 8137167.689388
-5301803.501724 -17671029.894713 8137007.102387
-5301888.821290 -17670979.898301 8137069.353005
-5302073.764791 -17670999.125962 8137174.784991
-5301837.379475 -17670931.899453 8137079.920526
-5301761.934336 -17670880.657603 8136977.898933
-5301987.088253 -17671029.423781 8137101.196388
-5302063.173989 -17671007.061277 8137169.634150
-5301966.183319 -17671038.350840 8137085.802929
-5301893.225048 -17671025.050824 8136983.189461
-5301944.173979 -17671023.671647 8137012.841517
-5301833.298562 -17670977.883484 8136963.338503
-5301830.813406 -17670951.325471 8137046.533016
-5301843.530270 -17670941.261602 8137058.413003
-5301784.376351 -17670983.730351 8137033.369168
-5302051.621162 -17670992.747122 8137167.695803
-5302030.705860 -17671001.228894 8137146.575176
-5301966.302249 -17670985.802185 8137139.652469
-5301955.839279 -17671050.470784 8137068.733101
-5301984.656799 -17670989.200408 8137126.134990
-5301857.055583 -17670976.900375 8137054.981371
-5301793.062397 -17671112.474424 8137008.347370
-5301766.307560 -17670974.376259 8137038.852509
-5302042.418958 -17670994.080758 8137170.880571
-5301995.447929 -17670976.922089 8137132.302345
-5301844.646030 -17671067.220514 8136999.923846
-5301985.775037 -17671046.009313 8137090.608988
-5301888.534443 -17670954.920803 8137077.551066
-5301992.730388 -17670983.908862 8137152.120764
-5301889.969735 -17671162.103862 8136939.115584
-5302078.131741 -17670993.972978 8137180.583275
-5302081.265258 -17670990.486524 8137179.856085
-5302083.704744 -17670992.126538 8137179.300975
-5302074.349022 -17670991.960358 8137178.359796
-5302082.290160 -17670993.381846 8137180.466223
-5302070.878363 -17670990.336035 8137179.804184
-5302077.788902 -17670987.874700 8137179.257123
-5302087.044542 -17670993.624142 8137182.644521
-5302076.348942 -17670991.373179 8137182.372455
-5302080.767006 -17670993.154763 8137179.324860
-5302091.392948 -17670990.580674 8137182.002401
-5302076.259288 -17671006.366183 8137169.254208
-5302074.846228 -17670991.851931 8137181.885781
-5302060.097025 -17671020.131174 8137120.663240
-5302077.707939 -17670993.926075 8137179.923137
-5302091.342178 -17670991.150667 8137182.431785
-5302078.796361 -17670993.182707 8137181.534538
-5302083.108295 -17670992.009225 8137179.598196
-5302076.082017 -17670981.909903 8137172.331966
-5302085.378843 -17670987.628419 8137179.215772
-5302077.446693 -17670991.865989 8137182.437275
-5302085.410096 -17670998.573485 8137178.815119
-5302081.951408 -17670998.630016 8137178.609129
-5302077.764636 -17670993.997962 8137181.116610
-5302085.740852 -17670988.055526 8137179.881792
-5302070.688844 -17670991.369211 8137179.312957
-5302073.654882 -17670992.675205 8137179.048380
-5302096.279656 -17670996.354918 8137181.500360
-5302091.346585 -17670991.539460 8137182.141190
-5302085.543825 -17670992.522812 8137180.407728
-5302078.139287 -17670999.223524 8137176.070763
-5302059.291739 -17671034.064145 8137135.622145
-5302080.566020 -17670991.386145 8137180.028026
-5302085.866393 -17670991.215384 8137181.507400
-5302059.610804 -17671037.076955 8137134.931120
-5302079.706175 -17671002.374319 8137175.958622
-5302078.661625 -17670993.131541 8137178.496463
-5302095.336512 -17670994.526201 8137182.235602
-5302083.106139 -17670990.202011 8137180.805994
-5302073.233490 -17670993.851412 8137181.029141
-5302077.641356 -17670993.312216 8137181.803852
-5302089.471794 -17670993.109280 8137183.156806
-5302093.592225 -17670994.861499 8137181.193256
-5302096.098920 -17670994.523460 8137182.275125
-5302081.549344 -17671001.334697 8137177.800807
-5302090.229077 -17670998.757293 8137175.680649
-5302086.139750 -17670991.023729 8137182.108670
-5302076.900363 -17671009.998178 8137167.348765
-5302079.527008 -17670998.051815 8137176.834430
-5302070.330459 -17670986.483974 8137178.675105
-5302081.787068 -17670993.214022 8137179.186687
-5302081.713162 -17670990.417643 8137179.302911
-5302077.183825 -17670993.362799 8137181.250532
-5302071.329926 -17670991.973599 8137180.143311
-5302082.484219 -17670992.943713 8137179.505743
-5302076.630298 -17670981.552728 8137172.466244
-5302086.437657 -17670991.931806 8137180.552851
-5302081.133542 -17671001.989176 8137176.923968
-5302093.146594 -17670996.481406 8137177.884421
-5302077.070604 -17671009.101732 8137168.881160
-5302073.761603 -17670991.722651 8137181.487625
-5302079.738341 -17670992.930955 8137181.642706
-5302080.142066 -17671001.650112 8137176.830065
-5302080.936372 -17670990.104147 8137180.456682
-5302084.212503 -17670998.708580 8137178.422265
-5302088.481236 -17670999.565488 8137170.889751
-5302079.772883 -17670984.895560 8137176.757653
-5302083.867277 -17670998.839392 8137177.807352
-5302084.199215 -17671003.145498 8137175.765420
-5302091.717905 -17670996.951859 8137176.336506
