ply
format ascii 1.0
element vertex 1398
property float x
property float y
property float z
end_header
-205.246881 -891.808837 31.849853
-205.492145 -890.074585 32.111409
-205.489250 -890.488308 31.998806
-207.172805 -888.298605 33.994103
-207.155274 -888.177601 34.132375
-207.586754 -888.264053 34.224211
-207.714501 -888.300568 34.300421
-205.501140 -890.464647 31.991831
-204.427551 -890.924826 35.797547
-204.493053 -890.992581 35.762234
-204.738102 -891.213778 35.664927
-204.915426 -891.474409 35.515481
-204.892496 -891.209888 35.757292
-204.923074 -891.358811 35.609681
-204.933292 -891.383905 35.612532
-204.919624 -891.204007 35.769733
-205.163859 -890.358895 37.660874
-204.243431 -890.508608 40.117013
-205.250646 -890.359649 37.804305
-204.653247 -890.320021 39.477393
-204.594258 -890.346858 39.592519
-204.952656 -890.243144 38.759796
-204.820456 -890.267193 39.122245
-205.385211 -890.458398 37.545546
-205.190518 -890.305258 38.177659
-205.334834 -890.389748 37.788253
-204.628084 -890.371045 39.617064
-205.555252 -890.698189 37.019338
-205.379298 -890.427051 37.671350
-205.535690 -890.629010 37.178102
-205.526392 -890.582249 37.299424
-205.557702 -890.614538 37.228222
-204.863540 -890.424941 39.509420
-204.912336 -890.453994 39.505520
-204.498820 -890.996850 35.758596
-204.681697 -891.284032 35.560063
-204.921455 -891.216280 35.764561
-205.222322 -890.374347 37.687667
-205.246114 -890.359699 37.808705
-204.797406 -890.251159 39.077002
-204.652504 -890.321460 39.475097
-204.593336 -890.346194 39.592745
-204.819624 -890.266627 39.122084
-205.384829 -890.454903 37.541155
-205.189312 -890.302272 38.175701
-204.659016 -890.336465 39.505153
-205.037159 -890.255754 38.599219
-205.383295 -890.431738 37.666722
-205.529709 -890.613971 37.189779
-205.520347 -890.573673 37.302316
-205.554719 -890.615417 37.239476
-204.912853 -890.455127 39.504431
-204.608766 -891.169717 35.634198
-204.933381 -891.409532 35.584497
-205.223737 -890.376390 37.686906
-205.246651 -890.362223 37.803049
-204.795080 -890.248652 39.072749
-204.634767 -890.310458 39.465133
-204.572552 -890.346749 39.606122
-205.064096 -890.257126 38.514919
-204.963684 -890.249022 38.747617
-205.327850 -890.394370 37.770163
-205.370065 -890.426988 37.675153
-205.553585 -890.619174 37.236696
-204.681333 -890.398932 39.627576
-204.841778 -890.415426 39.511367
-204.871939 -891.346131 35.593432
-204.900129 -891.441063 35.534793
-205.024824 -891.351244 35.698252
-205.216843 -890.374598 37.670218
-205.245906 -890.357096 37.805950
-204.837915 -890.245851 38.998865
-204.642617 -890.303747 39.442206
-204.781071 -890.262800 39.147279
-205.029415 -890.249029 38.579139
-205.550864 -890.709919 36.980185
-205.367907 -890.421873 37.681709
-205.544726 -890.631836 37.155756
-205.497075 -890.567502 37.324181
-204.680654 -890.397682 39.628827
-204.908384 -890.448658 39.496375
-204.754339 -891.235904 35.664108
-205.225649 -890.376135 37.663048
-204.567363 -890.346437 39.611666
-204.866972 -890.243356 38.960584
-204.974082 -890.249778 38.726376
-205.555639 -890.717725 36.987451
-205.536801 -890.636690 37.158736
-204.827748 -890.413680 39.521028
-204.769954 -890.253490 39.146058
-205.513844 -890.597857 37.231663
-205.541050 -890.654902 37.147550
-204.875435 -890.236298 38.915633
-204.872454 -890.233281 38.892914
-205.494570 -890.592028 37.233349
-204.952877 -890.428838 38.338648
-205.021492 -890.450178 38.350785
-205.045254 -890.452788 38.468096
-204.526118 -890.498508 39.824874
-205.525483 -891.050170 36.857489
-204.699815 -890.452618 39.474616
-204.595263 -890.501689 39.754980
-205.201571 -890.528806 38.174921
-204.980415 -890.442657 38.833456
-204.890084 -890.434111 39.058888
-204.827337 -890.444720 39.220947
-205.491312 -890.867565 37.229962
-205.437662 -890.752698 37.510166
-205.192551 -890.513934 38.302131
-205.503595 -890.856065 37.267936
-205.386360 -890.667993 37.752614
-205.372449 -890.634433 37.876751
-205.402262 -890.662600 37.815384
-204.951009 -890.427150 38.331079
-205.021515 -890.448973 38.343890
-205.045299 -890.451373 38.461433
-204.525133 -890.495407 39.818185
-205.520713 -891.055846 36.852557
-205.162332 -890.513107 38.173520
-204.594960 -890.502865 39.753582
-204.535720 -890.524437 39.877389
-205.199129 -890.526002 38.175715
-204.827045 -890.441273 39.212135
-204.802708 -890.443494 39.281602
-204.561267 -890.538813 39.883379
-205.129638 -890.486974 38.436946
-205.383134 -890.653828 37.751701
-205.402760 -890.663694 37.818242
-205.070142 -890.589955 37.589949
-205.043257 -890.453933 38.463329
-204.714605 -890.454932 39.454722
-205.135370 -890.489015 38.409254
-205.490375 -890.855575 37.258177
-205.325836 -890.623362 37.843169
-205.184476 -890.512724 38.303946
-205.362355 -890.641707 37.820932
-205.355424 -890.622667 37.898078
-205.074314 -890.594923 37.574817
-205.018867 -890.446844 38.320439
-204.784869 -890.439295 39.287369
-205.310401 -890.620863 37.830107
-204.971033 -890.440590 38.835264
-205.487847 -890.854541 37.254555
-205.401677 -890.727533 37.559807
-205.187469 -890.507628 38.297456
-205.333604 -890.619374 37.921849
-205.020630 -890.448980 38.327619
-204.782453 -890.441470 39.292305
-205.311527 -890.618629 37.832152
-205.420995 -890.736118 37.530143
-205.409454 -890.680480 37.709758
-205.305653 -890.602696 37.940295
-204.322861 -890.593613 40.228364
-205.360641 -890.641335 37.809690
-205.305138 -890.592872 37.951827
-205.390841 -890.686996 37.720218
-204.476112 -890.522304 39.935964
-205.298268 -890.596447 37.944124
-205.402164 -890.694381 37.684397
-204.604480 -890.461297 39.634947
-203.611254 -890.526757 39.597465
-204.969354 -890.401547 38.386516
-204.522446 -890.388225 39.584607
-204.364050 -890.483463 39.967452
-204.306315 -890.516936 40.074638
-204.668100 -890.358799 39.290994
-204.528274 -890.405843 39.633615
-205.095519 -890.473828 38.137457
-204.776170 -890.359598 39.074101
-204.558724 -890.406417 39.599201
-205.041931 -890.425607 38.369415
-205.092911 -890.455422 38.257315
-205.239843 -890.573009 37.887112
-205.015249 -890.413439 38.581717
-204.998563 -890.403483 38.633252
-204.401563 -890.564091 40.105589
-204.526659 -890.558877 39.986095
-204.587716 -890.619630 40.030709
-203.611891 -890.527192 39.594888
-204.967223 -890.401062 38.385743
-205.066712 -890.465498 38.134951
-204.305977 -890.516746 40.074978
-204.574308 -890.387163 39.526997
-204.527783 -890.405526 39.633648
-205.096227 -890.470104 38.127522
-204.897096 -890.368125 38.734307
-204.773920 -890.358360 39.070682
-204.560355 -890.400849 39.584423
-204.381646 -890.496786 39.983287
-204.752757 -890.357264 39.133565
-205.085102 -890.456822 38.263624
-205.236777 -890.568507 37.896715
-205.014637 -890.410054 38.580604
-205.014853 -890.395642 38.590854
-204.394949 -890.567071 40.115433
-204.538465 -890.595010 40.037554
-204.603552 -890.618299 40.012055
-204.969229 -890.402569 38.377409
-204.360864 -890.473989 39.947911
-204.309648 -890.509942 40.059827
-204.573735 -890.387846 39.525896
-204.750564 -890.357169 39.131834
-204.682363 -890.360182 39.270937
-205.045511 -890.428997 38.340844
-205.208240 -890.571440 37.844426
-205.087635 -890.454449 38.253517
-204.358470 -890.535549 40.080613
-205.223954 -890.563295 37.910617
-205.009051 -890.409088 38.583430
-205.266577 -890.601953 37.822805
-204.530870 -890.583914 40.027083
-204.968657 -890.398669 38.379634
-204.737413 -890.355152 39.136048
-204.681401 -890.360745 39.269649
-205.085615 -890.450572 38.259484
-204.358416 -890.535329 40.080925
-205.264843 -890.613979 37.753001
-205.213826 -890.563024 37.920756
-204.279841 -890.520259 40.095684
-204.737450 -890.356021 39.135311
-205.265153 -890.617590 37.736575
-204.498750 -890.576659 40.044129
-204.590437 -890.607832 40.007265
-204.486701 -890.401151 39.661414
-205.265928 -890.638267 37.725489
-205.011811 -890.390636 38.279757
-204.575232 -890.353092 39.468129
-204.426620 -890.434604 39.835241
-204.718775 -890.329883 39.176559
-204.948751 -890.352256 38.618628
-205.084365 -890.414791 38.264544
-204.847471 -890.338175 38.930970
-205.139156 -890.445431 38.141686
-205.253607 -890.571539 37.743401
-205.297741 -890.611192 37.667733
-205.287287 -890.572444 37.779383
-205.043441 -890.387486 38.526785
-205.312476 -890.600073 37.725847
-204.649171 -890.569933 39.903167
-205.011742 -890.389626 38.273663
-204.575095 -890.353735 39.467394
-205.108514 -890.458723 38.027300
-204.360582 -890.468962 39.953793
-204.730877 -890.326673 39.152587
-204.622050 -890.348949 39.406179
-204.581051 -890.369263 39.517639
-205.145256 -890.466098 38.021419
-204.945296 -890.349636 38.619161
-204.429883 -890.450497 39.865043
-205.088490 -890.415675 38.252917
-204.847506 -890.339996 38.929532
-205.128466 -890.447705 38.155275
-204.412903 -890.486883 39.958247
-205.275858 -890.565380 37.795671
-205.054994 -890.381356 38.495575
-204.451909 -890.513932 39.984365
-204.599233 -890.546987 39.911672
-204.649610 -890.570555 39.902086
-205.014883 -890.390967 38.262271
-204.349047 -890.463447 39.948627
-204.621384 -890.349755 39.404899
-205.247771 -890.569312 37.740511
-205.125599 -890.445349 38.154527
-204.410474 -890.494103 39.972806
-204.439096 -890.513895 39.991361
-204.593958 -890.533939 39.896626
-204.644826 -890.569015 39.904431
-205.014314 -890.386815 38.264538
-204.790659 -890.327538 39.013687
-204.949145 -890.354351 38.615610
-205.129980 -890.440810 38.148245
-204.415791 -890.500166 39.981365
-205.303220 -890.613155 37.651676
-204.410397 -890.422777 39.814746
-204.620078 -890.352663 39.401101
-204.790687 -890.328505 39.012901
-205.230604 -890.546854 37.830815
-204.561104 -890.527682 39.915810
-204.653035 -890.557141 39.877728
-205.227244 -890.536001 37.848499
-205.299723 -890.632258 37.643870
-204.620823 -890.337612 39.350791
-204.537555 -890.366086 39.553748
-206.444741 -892.199145 33.056792
-206.432416 -892.224669 33.107689
-206.484118 -892.177823 33.000345
-206.539749 -892.127519 32.902992
-212.568499 -888.548397 19.422781
-215.126386 -883.333967 15.990964
-206.530496 -892.153266 32.967736
-209.962705 -885.978073 27.896780
-233.888259 -874.016040 -27.189388
-214.075177 -883.859588 18.433142
-210.486669 -889.666603 24.270309
-219.652378 -884.999939 3.245368
-215.094498 -883.296379 16.005055
-207.695011 -891.291738 30.557340
-285.331888 -852.746101 -147.872621
-209.064347 -886.450290 29.833498
-208.223264 -890.961907 29.415805
-211.280359 -889.237601 22.505917
-208.926515 -890.537730 27.835988
-207.295666 -891.584164 31.474762
-209.234320 -890.367982 27.197811
-216.037443 -886.769109 11.714226
-211.528083 -889.083252 21.686240
-206.478285 -892.177072 32.999725
-212.552671 -888.549250 19.431468
-210.487620 -889.654202 24.200367
-209.212322 -886.376560 29.545429
-214.043353 -883.859358 18.465510
-210.511960 -889.646304 24.201336
-338.685399 -826.437682 -271.912080
-209.860586 -886.014714 28.051393
-208.377590 -890.859567 29.047449
-212.323824 -888.717905 20.135642
-280.151729 -855.407936 -136.028127
-209.040335 -890.465869 27.570598
-211.282740 -889.269404 22.533391
-209.132151 -886.410532 29.697532
-209.286888 -890.340080 27.101678
-216.079053 -886.742121 11.619812
-206.846936 -891.991941 32.553074
-211.533421 -889.103594 21.724663
-212.585290 -888.563695 19.312919
-215.180761 -883.342197 15.923165
-210.019312 -885.947448 27.686469
-209.207720 -886.374433 29.532096
-217.051861 -882.345488 11.596358
-214.226270 -883.777554 18.083529
-338.417081 -826.257453 -271.055540
-237.341029 -872.413051 -35.091476
-209.856159 -886.011973 28.041665
-212.146921 -888.794951 20.438808
-207.744426 -891.256829 30.445975
-211.325266 -889.232102 22.348842
-209.095605 -886.423491 29.736448
-212.665439 -888.498053 19.121953
-209.198848 -886.403520 29.636901
-237.884392 -872.117574 -36.584484
-209.076783 -886.426013 29.784400
-208.767906 -890.611867 28.199125
-211.447475 -889.148051 21.926476
-209.223313 -886.380036 29.595022
-213.795376 -884.001415 19.061755
-208.292051 -890.923184 29.246769
-208.265900 -890.909563 29.295067
-209.501605 -890.206293 26.596463
-208.612734 -890.722399 28.534032
-255.255112 -865.893674 -12.242637
-264.019581 -852.723876 -20.627941
-258.371541 -867.238658 -26.070507
-258.223541 -867.791888 -26.249563
-257.829046 -869.267082 -26.727240
-267.630762 -875.048316 -46.109162
-257.146292 -869.618287 -27.088492
-256.357374 -870.739872 -27.660538
-264.458718 -883.240128 -49.174264
-269.906803 -861.950020 -42.383607
-256.364915 -870.338290 -27.569164
-263.396643 -885.376791 -50.072409
-261.670725 -891.830767 -52.162246
-256.698675 -867.622070 -26.854570
-246.540527 -905.608312 -39.154915
-261.358362 -890.698499 -52.050568
-260.371602 -892.101445 -52.765581
-257.730642 -899.224929 -55.381687
-267.308555 -862.491377 -43.590278
-259.134118 -892.141623 -53.294279
-257.161601 -899.517592 -55.682595
-255.312481 -906.432578 -57.921843
-258.614343 -853.118827 -22.983431
-246.970745 -910.510368 -47.760119
-265.222223 -867.540409 -45.534464
-259.821674 -886.818151 -51.879919
-258.079526 -852.916834 -23.165555
-264.676981 -866.826920 -45.612845
-260.238947 -883.422837 -50.986762
-258.143194 -891.259806 -53.524428
-260.063544 -881.326353 -50.617320
-246.828602 -874.589591 -22.928832
-258.508349 -885.307008 -52.112564
-255.487955 -896.601463 -55.769709
-264.373704 -860.621585 -44.428754
-254.511235 -897.501466 -56.370548
-250.997692 -910.639882 -60.624712
-239.363934 -916.297397 -44.431329
-263.804654 -860.914306 -44.729678
-238.779804 -916.279802 -44.673162
-256.255104 -850.197540 -23.357660
-241.067044 -906.992464 -41.748201
-262.889660 -861.583761 -45.256001
-238.620506 -915.407542 -44.555739
-238.116025 -915.826079 -44.856284
-250.531232 -867.931966 -29.512812
-250.519871 -866.506508 -29.216260
-261.799089 -860.156832 -45.412641
-261.490890 -861.309326 -45.785825
-246.303617 -857.775598 -14.289521
-250.114014 -866.556245 -29.397385
-255.436019 -882.116394 -52.729624
-261.808606 -857.368852 -44.819288
-239.432256 -905.765956 -42.176150
-237.774707 -911.230639 -44.028333
-260.623331 -859.966460 -45.866822
-259.992729 -860.489630 -46.242503
-237.289123 -910.844206 -44.150557
-236.993251 -911.950601 -44.508815
-259.916887 -858.938306 -45.946450
-247.470262 -866.166808 -30.426424
-252.871340 -855.008401 -48.077464
-244.223477 -857.022678 -29.858197
-229.543822 -907.512876 -46.702475
-239.424406 -896.117631 -62.420113
-240.633645 -880.586227 -58.628636
-250.651397 -883.267150 -92.118010
-238.784436 -887.501200 -60.867709
-242.653567 -871.197933 -55.794943
-237.293499 -866.789708 -34.836134
-241.074652 -876.184747 -57.512850
-239.780217 -881.025227 -59.080236
-243.328485 -843.488123 -27.373354
-243.131330 -844.225599 -27.612343
-240.975091 -875.639585 -57.439461
-241.183731 -873.941927 -56.992889
-237.547003 -887.541369 -61.396551
-242.501876 -868.095294 -55.202821
-239.604814 -878.928743 -58.710794
-246.100756 -853.720144 -50.651309
-244.559757 -859.482627 -52.517235
-241.107888 -872.390606 -56.696834
-243.412287 -862.855976 -53.712610
-243.459696 -860.843680 -53.267217
-238.678059 -855.740344 -31.918268
-245.963614 -850.111514 -49.953376
-237.593237 -859.797083 -33.231960
-235.925430 -887.182732 -62.002237
-238.222971 -855.974388 -32.159263
-253.610312 -856.299721 -85.173511
-236.041844 -862.662546 -34.489854
-240.548163 -845.077338 -28.878071
-238.674393 -852.084404 -31.147193
-247.912182 -834.101906 -45.742730
-244.446142 -845.228045 -49.551717
-233.213423 -885.397105 -62.764827
-231.975982 -885.437272 -63.293672
-260.507883 -808.487348 -72.166741
-268.697242 -856.799832 -23.236329
-266.587587 -850.927291 -22.882006
-264.880702 -851.805304 -23.785137
-259.889142 -868.189143 -29.352864
-259.427908 -868.525637 -29.611743
-263.605296 -851.069821 -24.165809
-254.013232 -886.021558 -35.586618
-270.134257 -884.367673 -59.404472
-252.348953 -892.245051 -37.601828
-252.149536 -891.154743 -37.454597
-267.004952 -889.953217 -61.900727
-245.795963 -910.326277 -44.178142
-246.313112 -907.476232 -43.358971
-265.734234 -889.811674 -62.404879
-267.984915 -880.172175 -59.421103
-273.769623 -857.317398 -52.158150
-258.893964 -912.944483 -70.170703
-256.146938 -867.032681 -30.675377
-255.961955 -867.724209 -30.899205
-266.518503 -881.986791 -60.421645
-255.392996 -868.016882 -31.200248
-250.338558 -886.917781 -37.320521
-242.140523 -917.574190 -47.247392
-271.329406 -859.102743 -53.561356
-265.279206 -880.503756 -60.628603
-254.648820 -866.212964 -31.132098
-253.064998 -924.954587 -75.159448
-243.269076 -907.849230 -44.717218
-240.073137 -917.047099 -48.004578
-269.331965 -858.009761 -54.170393
-240.035392 -916.271553 -47.856968
-268.440601 -857.673105 -54.473932
-252.851767 -863.757902 -31.368322
-252.050388 -866.754425 -32.338519
-252.406086 -863.589574 -31.520091
-261.005712 -880.581576 -62.441520
-241.002837 -906.231958 -45.328240
-238.631853 -911.427173 -47.422458
-238.323654 -912.579664 -47.795642
-241.571662 -870.944447 -19.062548
-264.230139 -855.067957 -55.692780
-244.867425 -861.503666 -34.248199
-230.400980 -910.094935 -50.600871
-242.988555 -897.801178 -73.655552
-231.823492 -897.435715 -47.326734
-249.418382 -860.301511 -63.025977
-243.943334 -879.551320 -69.396244
-240.532307 -847.301900 -22.757815
-249.892413 -856.081873 -61.934303
-232.037166 -888.380274 -45.323377
-239.272775 -860.405644 -36.368159
-237.978251 -865.246211 -37.935358
-237.015712 -867.928052 -38.906841
-247.913692 -857.364771 -63.037296
-239.511738 -886.336858 -72.693666
-239.637800 -854.452980 -34.956029
-238.158569 -859.984824 -36.747584
-251.157073 -846.129428 -68.140723
-237.191323 -858.096887 -36.754980
-263.638782 -853.010355 -20.141228
-266.795214 -863.679835 -35.805358
-266.548741 -864.601790 -36.104004
-254.429513 -858.666107 -14.156353
-266.611821 -861.918780 -35.510038
-265.195882 -864.767582 -36.707756
-257.881078 -892.120211 -45.564421
-259.227857 -885.861330 -43.675528
-257.748330 -891.393328 -45.466569
-264.847948 -863.621274 -36.611269
-256.641999 -890.637125 -45.771715
-255.257905 -892.144443 -46.672972
-260.960239 -869.596937 -39.509184
-256.288085 -883.397632 -44.390160
-256.237710 -882.363376 -44.193077
-255.251291 -886.051399 -45.386989
-260.245938 -864.928298 -38.822552
-259.259697 -868.616291 -40.016747
-250.939710 -897.281126 -49.573280
-246.843021 -908.930381 -53.757812
-257.951154 -863.723215 -39.532474
-249.024241 -895.880934 -50.082504
-257.521063 -862.884243 -39.535492
-257.274723 -863.806111 -39.834351
-245.224787 -907.642448 -54.166104
-257.584461 -860.201060 -38.941930
-242.360950 -914.681759 -56.858025
-255.820528 -861.903602 -40.043053
-254.600630 -862.796143 -40.744970
-254.549862 -861.762061 -40.547286
-253.709265 -862.459487 -41.048509
-254.265500 -857.932492 -39.857434
-249.315693 -858.093105 -41.972438
-234.041570 -911.539644 -59.691054
-233.579996 -912.042040 -59.991002
-243.828315 -865.156687 -45.772355
-236.690624 -888.177350 -53.638760
-237.228059 -881.274515 -51.953645
-242.026650 -862.107607 -45.885180
-238.492491 -875.322991 -50.164052
-234.825716 -887.811373 -54.345352
-240.610392 -864.956621 -47.082360
-237.816183 -875.405819 -50.466227
-242.203715 -857.775625 -44.895008
-240.642167 -863.614948 -46.785817
-231.930486 -896.192235 -57.334922
-243.961151 -849.980210 -42.508068
-242.810594 -854.282801 -43.901400
-241.147975 -858.053635 -45.397581
-240.800140 -856.907354 -45.301058
-240.863394 -854.224266 -44.707290
-240.699171 -854.838764 -44.906654
-231.639581 -886.269641 -55.358810
-254.487380 -871.660643 -25.474627
-250.295856 -887.334572 -30.549921
-253.330522 -869.870223 -25.582462
-268.095991 -891.415181 -66.908921
-265.876951 -899.713162 -69.595857
-252.439161 -869.533568 -25.886000
-251.155748 -873.109358 -27.181300
-246.060335 -892.163907 -33.351517
-268.162216 -883.826925 -65.276494
-251.547799 -869.196913 -26.189539
-257.598636 -912.320909 -75.741440
-270.978936 -854.944805 -57.987079
-255.493321 -911.018208 -76.350630
-248.854879 -865.811122 -26.606045
-247.470297 -867.318525 -27.506537
-246.035350 -867.791585 -28.209950
-240.747496 -916.615175 -83.731622
-228.997750 -907.037132 -43.668320
-253.483404 -857.980687 -65.983258
-245.442090 -884.381771 -74.945324
-244.825654 -886.686777 -75.691601
-245.783525 -879.435121 -73.756121
-232.930117 -880.099028 -36.320484
-247.111183 -870.800489 -71.372668
-231.728938 -883.367462 -37.516317
-249.671680 -857.555841 -67.496579
-232.367501 -878.533045 -36.225961
-236.755055 -860.902864 -30.654826
-234.700321 -868.586231 -33.142570
-227.385679 -895.938735 -41.999300
-237.361911 -857.410077 -29.661180
-249.908910 -847.494174 -65.270028
-227.360629 -887.469901 -40.220100
-269.533758 -861.726182 -38.538750
-269.164012 -863.109129 -38.986678
-268.348491 -864.323794 -39.586269
-266.964009 -865.831131 -40.486904
-262.279391 -883.349054 -46.159333
-261.662989 -885.654044 -46.905699
-267.751035 -861.052872 -39.145827
-264.934725 -866.079817 -41.392531
-257.462288 -892.188368 -50.053222
-255.736032 -898.642336 -52.142499
-255.214511 -896.922693 -51.998216
-256.125241 -891.683384 -50.508532
-258.268261 -881.834106 -47.525258
-251.292283 -895.952637 -53.417170
-259.757270 -861.586570 -42.619163
-246.860392 -907.979061 -57.847737
-258.097827 -860.452260 -43.076966
-238.933350 -872.024438 -17.763683
-256.040138 -857.137305 -43.241213
-245.429001 -863.788366 -49.107817
-239.873253 -879.964915 -54.852264
-238.946328 -880.639181 -55.347136
-239.037489 -882.184302 -55.683357
-240.071304 -876.483930 -54.044185
-242.185955 -863.071070 -50.319476
-244.575653 -852.299850 -47.037826
-243.067949 -854.268125 -48.087853
-233.101238 -886.033025 -58.992067
-255.132880 -870.852385 -28.614074
-254.933757 -869.762061 -28.467295
-248.893176 -892.350977 -35.781939
-249.651622 -884.009056 -33.699171
-245.953211 -897.838963 -38.177333
-253.397649 -868.166722 -28.775903
-247.480349 -866.439558 -30.897946
-247.774450 -863.505173 -30.154229
-233.170827 -886.920533 -41.242705
-240.089042 -860.477357 -39.285520
-238.955739 -856.113930 -32.299048
-236.983219 -863.489951 -34.687352
-230.202918 -888.844842 -42.897708
-237.153936 -861.016631 -34.092752
-228.666572 -887.249579 -43.205674
-226.760601 -887.037257 -43.962118
-240.401206 -870.320309 -19.771346
-240.448645 -868.307984 -19.326017
-251.578551 -886.434068 -93.094528
-252.906656 -877.799311 -90.712276
-251.616598 -875.282171 -90.721057
-258.217124 -843.260819 -81.178049
-258.558346 -838.314395 -79.988382
-242.911805 -882.145430 -95.832418
-267.668421 -855.894140 -55.002784
-256.535276 -888.247895 -66.452963
-245.270222 -880.933458 -69.711446
-244.777106 -882.777441 -70.308539
-243.980818 -878.416080 -69.721953
-249.993138 -852.263480 -61.666133
-269.219183 -874.157686 -182.254723
-205.258433 -893.559919 34.663834
-205.286012 -893.684158 34.530990
-205.250477 -893.553611 34.665115
-205.251719 -893.561645 34.656091
-205.237472 -893.539298 34.673184
-205.253589 -893.639926 34.550703
-205.236728 -893.588129 34.601180
-205.237315 -893.590774 34.598370
-205.239926 -893.597418 34.589425
-205.218626 -893.531393 34.669535
-205.237946 -893.594854 34.593259
-205.249837 -893.648492 34.534501
-205.233852 -893.590065 34.598377
-205.236462 -893.596657 34.589388
-205.236382 -893.599305 34.586350
-205.212973 -893.531319 34.669973
-205.232679 -893.587685 34.596958
-205.234650 -893.605357 34.579796
-205.253057 -893.689260 34.489302
-205.233188 -893.591900 34.589245
-205.233926 -893.598014 34.584966
-205.235899 -893.602124 34.578721
-205.251432 -893.695448 34.480142
-205.259753 -893.737877 34.437218
-205.255622 -893.731068 34.441161
-205.253610 -893.739226 34.429008
-205.251360 -893.729183 34.438661
-205.202871 -893.524174 34.668033
-205.257845 -893.785483 34.377428
-205.222908 -893.593182 34.579625
-205.224522 -893.601493 34.570633
-205.225888 -893.602877 34.567249
-205.270214 -893.868850 34.290158
-205.255718 -893.787582 34.372549
-205.263968 -893.838503 34.319960
-205.202344 -893.529034 34.658222
-205.270587 -893.893136 34.263445
-205.220841 -893.597253 34.572061
-205.199448 -893.527803 34.656994
-205.217945 -893.589176 34.579212
-205.219498 -893.591340 34.574857
-205.221265 -893.609580 34.553642
-205.276804 -893.986008 34.160606
-205.214085 -893.586641 34.578402
-205.234809 -893.699332 34.454596
-205.228823 -893.677490 34.477338
-205.217312 -893.609563 34.549296
-205.210973 -893.585192 34.576822
-205.213308 -893.591912 34.567411
-205.232418 -893.699933 34.453571
-205.225453 -893.680522 34.469866
-205.208908 -893.583152 34.573836
-205.207927 -893.589576 34.567653
-205.206093 -893.584551 34.572169
-205.205517 -893.586770 34.568605
-205.184804 -893.516297 34.660283
-205.204603 -893.586140 34.565117
-205.202962 -893.582010 34.568625
-205.202503 -893.585150 34.564031
-205.199525 -893.585620 34.563311
-205.196415 -893.578323 34.569352
-205.197738 -893.579533 34.565924
-205.197421 -893.584623 34.562217
-205.192035 -893.568959 34.576748
-205.192240 -893.575242 34.565235
-205.192637 -893.577934 34.562182
-205.187028 -893.573814 34.564460
-205.250396 -893.553301 34.665401
-205.240824 -893.535223 34.675811
-205.236407 -893.539789 34.674167
-205.253548 -893.640061 34.551450
-205.236741 -893.590575 34.599216
-205.238507 -893.594925 34.594815
-205.239647 -893.597448 34.589618
-205.219422 -893.530013 34.668738
-205.249939 -893.647795 34.534276
-205.235926 -893.596990 34.590025
-205.236397 -893.599174 34.587706
-205.231980 -893.594240 34.589357
-205.252154 -893.695643 34.481186
-205.254007 -893.699980 34.474962
-205.259948 -893.738373 34.437460
-205.228600 -893.588843 34.592756
-205.255800 -893.730467 34.442561
-205.277196 -893.852545 34.317927
-205.231292 -893.600709 34.576475
-205.226670 -893.595781 34.581600
-205.251374 -893.728568 34.440025
-205.271753 -893.848369 34.317011
-205.203257 -893.523951 34.667980
-205.226794 -893.597501 34.575383
-205.269357 -893.868581 34.292597
-205.222716 -893.591749 34.578634
-205.248462 -893.739684 34.423155
-205.263573 -893.837025 34.321754
-205.271809 -893.893966 34.264651
-205.202797 -893.528071 34.657939
-205.221281 -893.597332 34.573682
-205.219401 -893.586267 34.582093
-205.266589 -893.876237 34.277706
-205.217512 -893.589621 34.579599
-205.219382 -893.592220 34.574364
-205.199588 -893.527345 34.655427
-205.221400 -893.609812 34.554074
-205.234779 -893.687328 34.469308
-205.242075 -893.733383 34.421102
-205.216044 -893.593919 34.572343
-205.233390 -893.682544 34.473571
-205.234506 -893.700542 34.455767
-205.236494 -893.706633 34.447574
-205.213504 -893.591523 34.568763
-205.216453 -893.608620 34.550135
-205.242560 -893.781033 34.366487
-205.226974 -893.679722 34.470014
-205.207234 -893.589833 34.567847
-205.185215 -893.515915 34.660091
-205.204500 -893.586307 34.565455
-205.200716 -893.584526 34.563502
-205.210017 -893.679187 34.452004
-205.234348 -893.921338 34.190643
-205.188070 -893.578513 34.556915
-205.181306 -893.572219 34.557315
-205.253913 -893.639539 34.551241
-205.237888 -893.591024 34.599714
-205.238743 -893.594871 34.595640
-205.235122 -893.582537 34.603020
-205.262766 -893.738598 34.436360
-205.251821 -893.689238 34.487793
-205.252803 -893.694567 34.482333
-205.259069 -893.733902 34.441387
-205.229584 -893.589627 34.592695
-205.275578 -893.854085 34.316913
-205.228225 -893.594592 34.580146
-205.251631 -893.728882 34.439356
-205.228360 -893.603262 34.569303
-205.256893 -893.780142 34.382773
-205.223012 -893.597292 34.575583
-205.249254 -893.738967 34.424308
-205.255743 -893.783899 34.376953
-205.272600 -893.894720 34.264609
-205.224869 -893.614391 34.555603
-205.219754 -893.585955 34.582046
-205.219477 -893.591800 34.574201
-205.236099 -893.688938 34.471068
-205.232918 -893.684277 34.473404
-205.231260 -893.678606 34.478476
-205.234694 -893.700182 34.455753
-205.214974 -893.608348 34.551631
-205.238892 -893.774693 34.368507
-205.198755 -893.584593 34.560461
-205.192010 -893.569938 34.576941
-205.175179 -893.556664 34.569925
-205.237760 -893.589345 34.600681
-205.234428 -893.583345 34.603981
-205.239209 -893.596226 34.586994
-205.235830 -893.605154 34.577428
-205.252369 -893.687841 34.488263
-205.253265 -893.700990 34.477365
-205.229795 -893.584001 34.598229
-205.273568 -893.850779 34.317451
-205.227393 -893.604328 34.569411
-205.249393 -893.736864 34.425139
-205.257058 -893.783363 34.377094
-205.273836 -893.894645 34.264802
-205.222518 -893.596221 34.574536
-205.241860 -893.736595 34.421241
-205.263457 -893.874528 34.277696
-205.235266 -893.698309 34.456632
-205.213725 -893.589371 34.573920
-205.230882 -893.676313 34.478681
-205.213450 -893.592078 34.569964
-205.217122 -893.607759 34.550381
-205.204357 -893.587873 34.565333
-205.199922 -893.579639 34.565396
-205.193057 -893.569811 34.576368
-205.173172 -893.558815 34.567905
-205.236041 -893.588230 34.602579
-205.251993 -893.687482 34.489151
-205.254364 -893.700354 34.475973
-205.231228 -893.583325 34.595863
-205.275835 -893.849756 34.318151
-205.223078 -893.593676 34.580578
-205.249513 -893.739321 34.423090
-205.273152 -893.893716 34.266674
-205.249667 -893.770821 34.384971
-205.222210 -893.609220 34.553341
-205.263061 -893.874348 34.274457
-205.230201 -893.677806 34.477056
-205.246200 -893.781549 34.368145
-205.134919 -893.666129 34.387156
-205.275252 -893.849528 34.317787
-205.250357 -893.738589 34.424907
-205.253863 -893.777975 34.380901
-205.223225 -893.609801 34.553971
-205.232231 -893.679178 34.477610
-205.248514 -893.783120 34.368785
-205.169009 -893.710744 34.369554
-205.138665 -893.694315 34.355969
-205.134813 -893.672612 34.378157
-206.026260 -893.055673 33.338612
-207.413399 -894.577519 29.663653
-208.201592 -894.548244 28.207941
-206.998724 -894.592467 30.424952
-206.075812 -893.055518 33.252197
-205.987311 -893.064245 33.413774
-206.008926 -893.065344 33.377496
-206.038341 -893.058873 33.324653
-206.241419 -893.038772 32.961736
-219.806381 -894.342078 6.582439
-208.506803 -892.952383 28.832131
-205.943027 -893.091837 33.528796
-206.096107 -893.070388 33.259078
-207.286835 -894.581517 29.840965
-206.549244 -894.614924 31.193357
-206.018784 -893.080773 33.400434
-206.073306 -893.077464 33.313393
-206.562684 -894.614035 31.162599
-206.461993 -894.619365 31.346813
-206.023099 -893.084649 33.406155
-206.091322 -893.077216 33.285488
-206.059661 -893.084362 33.354077
-205.798314 -893.141549 33.871770
-206.360645 -894.621967 31.437726
-206.452017 -894.617591 31.259994
-208.669039 -894.559378 27.134231
-323.266696 -892.568540 -186.056951
-235.487622 -894.474597 -23.319915
-207.371614 -893.017308 31.080746
-206.306422 -893.074985 33.032191
-208.644035 -892.989865 28.695407
-212.368194 -892.956846 21.711471
-207.969742 -893.010560 29.959983
-206.974965 -893.035951 31.819298
-207.749443 -893.013492 30.367000
-206.040025 -893.103618 33.515875
-206.294512 -893.076164 33.063918
-207.690973 -893.011209 30.499367
-206.514784 -893.057341 32.669526
-206.394431 -893.065284 32.893712
-207.962638 -894.572272 28.395778
-205.827694 -893.139401 33.895159
-205.966824 -893.114318 33.651512
-219.339843 -894.547224 6.983800
-206.047073 -893.103546 33.520226
-206.771923 -893.049142 32.207351
-206.063704 -893.101513 33.493481
-206.113955 -893.092993 33.409231
-206.078937 -893.097464 33.477010
-206.004565 -893.098310 33.623000
-215.209414 -894.591838 14.664337
-206.028982 -893.050265 33.326160
-206.062946 -893.048637 33.269097
-207.409647 -894.576509 29.672030
-206.022015 -893.055775 33.345641
-207.009413 -894.599373 30.414346
-206.076452 -893.050521 33.250328
-205.983848 -893.062814 33.417046
-207.246505 -894.581892 29.966440
-206.010126 -893.066171 33.376749
-206.045346 -893.056320 33.309513
-219.956340 -894.338383 6.339995
-213.620332 -894.449343 18.102783
-206.255710 -894.637484 31.739860
-205.948927 -893.092077 33.522075
-208.469916 -892.947776 28.902264
-207.298975 -894.580011 29.820791
-206.555213 -894.614560 31.180797
-206.573121 -894.613502 31.143065
-206.471246 -894.618835 31.329498
-206.043470 -893.080911 33.368146
-206.082669 -893.073800 33.303519
-206.084408 -893.076812 33.296060
-206.046560 -893.084790 33.375805
-206.084900 -893.087119 33.317062
-206.058620 -893.085924 33.363431
-206.001991 -893.102218 33.514954
-206.423277 -893.062209 32.782148
-208.716615 -894.554175 27.045820
-206.421453 -893.061876 32.794636
-211.251622 -892.965372 23.790719
-292.271688 -892.752062 -128.041909
-234.363525 -894.425391 -21.194521
-206.531720 -893.053321 32.622571
-206.299857 -893.074209 33.045673
-211.424657 -892.969754 23.472234
-207.951047 -893.004682 29.990092
-206.040518 -893.103844 33.515824
-206.300138 -893.074387 33.054354
-206.957501 -893.031000 31.842303
-206.502170 -893.060392 32.690592
-206.394518 -893.067382 32.889665
-205.966966 -893.113671 33.654708
-207.971341 -894.576299 28.371233
-219.754305 -894.539414 6.300502
-205.839815 -893.137161 33.879178
-206.045057 -893.101438 33.526818
-206.777156 -893.047110 32.198724
-206.076788 -893.096022 33.480043
-206.004108 -893.097871 33.624216
-218.661455 -894.576924 8.279413
-215.594062 -894.574965 13.981501
-206.022149 -893.050719 33.334714
-205.982874 -893.065496 33.424020
-206.040712 -893.056747 33.314482
-213.670401 -894.435503 17.947854
-218.027311 -894.408148 9.842709
-208.451359 -892.950383 28.959099
-207.319682 -894.584067 29.799476
-205.946107 -893.093521 33.525399
-206.558997 -894.616221 31.173208
-206.483877 -894.619994 31.307788
-206.035515 -893.082208 33.380604
-206.060052 -893.079302 33.336961
-206.091071 -893.081038 33.299033
-206.053719 -893.086085 33.368007
-205.930858 -893.102661 33.586798
-205.951757 -893.100434 33.552819
-206.004120 -893.104076 33.510603
-206.423277 -893.062209 32.782148
-206.462101 -894.618201 31.238108
-209.123373 -894.556538 26.301075
-206.425284 -893.063610 32.795109
-211.270512 -892.967732 23.796058
-233.490320 -894.438503 -19.350083
-271.588677 -892.895598 -89.925997
-206.533474 -893.055110 32.602158
-212.235695 -892.965397 21.993407
-210.278183 -892.986064 25.605160
-208.573676 -892.990934 28.818490
-211.478673 -892.973104 23.414487
-206.294181 -893.074794 33.060793
-207.968126 -893.001588 29.954694
-206.494495 -893.060853 32.704593
-208.015953 -893.021066 29.877850
-207.992247 -894.574733 28.331498
-205.963998 -893.114680 33.660690
-206.778651 -893.053537 32.189203
-206.115704 -893.095813 33.400265
-206.078771 -893.098053 33.473325
-206.020993 -893.099020 33.590394
-215.832324 -894.604358 13.451771
-206.024454 -893.057925 33.337932
-206.985233 -894.590715 30.455999
-206.038582 -893.056505 33.324847
-207.255131 -894.579687 29.948830
-205.946796 -893.092003 33.522619
-206.580486 -894.613945 31.131278
-206.044491 -893.081729 33.373667
-205.952002 -893.098510 33.551915
-206.360082 -894.624926 31.455616
-206.472458 -894.618848 31.233232
-206.417357 -893.067296 32.807530
-242.903511 -892.891253 -35.508238
-239.587038 -894.461649 -30.810675
-210.234552 -892.985679 25.731824
-212.349499 -892.961589 21.704100
-208.556982 -893.001311 28.871204
-207.972626 -893.004021 29.958769
-211.428777 -892.971259 23.441512
-206.489402 -893.057883 32.715908
-208.025321 -893.023994 29.862711
-206.396179 -893.070338 32.884684
-207.961335 -894.580701 28.379500
-205.837198 -893.138019 33.879003
-206.119446 -893.093814 33.392619
-220.621793 -894.557765 4.456985
-206.027236 -893.054841 33.336803
-206.998131 -894.591803 30.430760
-206.239765 -893.038301 32.964996
-207.261779 -894.581255 29.932833
-207.342012 -894.578725 29.742202
-206.033922 -893.084124 33.392161
-218.268010 -892.828281 10.668622
-206.457597 -894.622085 31.257475
-206.423460 -893.060693 32.801761
-212.926053 -892.972040 20.690315
-206.457496 -893.059972 32.775771
-205.953416 -893.115663 33.678591
-206.082961 -893.098822 33.455805
-206.030505 -893.105027 33.554346
-219.967035 -894.582541 5.832723
-216.918412 -894.599953 11.513460
-206.106013 -893.029333 33.198785
-206.071059 -893.090203 33.336546
-205.953329 -893.105756 33.549495
-205.837839 -893.139301 33.872704
-217.833127 -894.519762 9.930204
-206.033133 -893.103709 33.543866
-206.074652 -893.098659 33.470388
-221.272098 -894.546988 3.417134
-206.032830 -893.097138 33.404453
-230.762820 -894.481312 -14.259626
-212.655458 -892.973467 21.192467
-223.689677 -892.946080 0.506784
-211.090770 -892.987041 24.131754
-206.152942 -893.085831 33.329281
-206.021500 -893.101316 33.570287
-212.906221 -892.981463 20.710697
-217.458383 -892.973207 12.174396
-210.995169 -892.995662 24.302326
-206.160889 -893.086737 33.305774
-206.469808 -892.865144 32.833939
-206.497775 -892.861662 32.761952
-206.506186 -892.867922 32.753807
-206.467135 -892.864091 32.829957
-206.514007 -892.866403 32.746614
-206.455462 -892.868277 32.854091
-209.084826 -892.850520 27.915569
-206.376620 -892.866084 33.004064
-207.202373 -894.551374 29.945904
-206.435397 -894.558743 31.380532
-206.449340 -892.863856 32.860915
-206.477211 -892.865788 32.813634
-206.503462 -892.866386 32.762488
-206.456065 -894.561951 31.351831
-206.345841 -894.558913 31.550424
-206.443165 -892.866742 32.867678
-206.476682 -892.868606 32.805831
-206.484900 -892.868129 32.789957
-206.389181 -892.859610 32.970417
-206.187645 -892.855316 33.350381
-206.303930 -894.581695 31.631784
-206.408658 -894.584484 31.428365
-208.903811 -894.585380 26.726201
-211.324151 -892.851996 23.671599
-242.799450 -892.766427 -35.270512
-287.079929 -894.468375 -120.310873
-207.698771 -892.857805 30.503318
-206.650422 -892.858152 32.467985
-208.850626 -892.866054 28.313612
-212.067361 -892.851727 22.272155
-208.736367 -892.860357 28.554230
-208.246753 -892.863845 29.450972
-211.307903 -892.854520 23.698465
-207.298903 -892.859208 31.250024
-208.036989 -892.862640 29.846233
-206.387989 -892.848182 32.965814
-206.636757 -892.852262 32.496412
-207.943178 -892.864456 30.037066
-206.718044 -892.852660 32.342169
-206.174889 -892.842559 33.372459
-206.277032 -892.844901 33.177578
-206.428331 -892.846941 32.888442
-234.359282 -894.647104 -21.212477
-206.390036 -892.843476 32.969211
-207.089226 -892.853575 31.644370
-206.393430 -892.848251 32.951524
-206.340396 -892.838943 33.055000
-206.153320 -892.836634 33.410177
-206.507930 -892.863649 32.762574
-206.382997 -892.864813 32.993623
-206.377095 -892.868151 33.000338
-209.009447 -892.852440 28.051225
-207.228622 -894.554680 29.893241
-206.440731 -894.558271 31.371430
-206.461710 -894.559469 31.332413
-206.354320 -894.558295 31.535174
-206.467461 -892.867160 32.827405
-206.505825 -892.866405 32.744208
-206.464632 -892.866816 32.828943
-206.387920 -892.861344 32.971272
-206.812608 -892.860725 32.170582
-206.422373 -894.581156 31.411792
-208.944690 -894.580505 26.663765
-241.101527 -892.768983 -32.087494
-206.876302 -892.856684 32.047039
-211.910460 -892.858318 22.602446
-206.644532 -892.855716 32.480984
-211.181786 -892.878263 23.951660
-208.057109 -892.858404 29.829183
-208.234874 -892.859439 29.486249
-206.385514 -892.850010 32.969020
-206.636857 -892.853821 32.495015
-206.839570 -892.852891 32.115340
-206.731489 -892.850256 32.319439
-206.309862 -892.846064 33.119379
-235.210282 -894.602018 -22.588275
-206.183392 -892.840855 33.351455
-207.101470 -892.849030 31.625360
-206.402195 -892.841626 32.939263
-206.338573 -892.837107 33.059934
-251.863639 -894.702469 -54.228792
-206.502023 -892.866510 32.767556
-218.855880 -894.436245 8.156646
-206.476220 -892.866144 32.814918
-209.008935 -892.850406 28.081094
-207.242905 -894.556497 29.886930
-206.376492 -892.867852 32.999898
-206.441011 -894.558084 31.370777
-206.368704 -894.560300 31.520799
-206.461930 -892.865973 32.837071
-206.487037 -892.866570 32.789162
-206.514888 -892.868995 32.742590
-206.475283 -892.867924 32.817109
-206.345296 -892.861871 33.054144
-206.394881 -892.860940 32.958702
-206.257813 -894.580265 31.719878
-206.806602 -892.863504 32.179443
-206.418787 -894.586162 31.414150
-206.793593 -892.860955 32.202230
-211.281517 -892.864403 23.778247
-273.732393 -894.445301 -94.755252
-236.359765 -892.882022 -23.560651
-206.889306 -892.859944 32.019880
-208.811037 -892.859708 28.383759
-211.263584 -892.867288 23.807820
-208.023824 -892.861768 29.888942
-208.244469 -892.862773 29.474285
-243.804351 -894.535237 -39.006343
-206.825874 -892.855608 32.138703
-208.314071 -892.862555 29.342741
-206.433489 -892.851016 32.886926
-206.738480 -892.853086 32.303821
-206.306844 -892.844005 33.118970
-207.118117 -892.851781 31.592082
-206.448179 -892.847784 32.849572
-206.404696 -892.844329 32.930536
-251.235084 -894.775056 -52.763215
-206.464204 -892.866333 32.835886
-206.381201 -892.864325 32.992478
-206.462515 -892.866515 32.833936
-206.509826 -892.869708 32.750485
-206.361167 -892.862732 33.020745
-206.295985 -894.580741 31.645938
-206.793036 -892.860843 32.203220
-230.640838 -892.803705 -12.492364
-289.676014 -894.337117 -124.578394
-212.254994 -892.847791 21.892018
-208.832456 -892.862283 28.372927
-208.250448 -892.865459 29.476785
-206.813416 -892.855497 32.162292
-208.288531 -892.873620 29.381326
-206.308330 -892.847089 33.125219
-206.456406 -892.863799 32.845293
-206.501313 -892.873787 32.761863
-206.409121 -894.586245 31.431780
-206.791570 -892.856696 32.209530
-232.134981 -892.789320 -15.621047
-212.586384 -892.871728 21.323283
-208.796541 -892.854226 28.454728
-206.789436 -892.850506 32.211084
-206.189809 -892.843072 33.339019
-206.297783 -892.842707 33.137258
-206.365218 -892.843034 33.008325
-259.221234 -894.832859 -67.792654
-241.230820 -894.657587 -33.888044
-206.498316 -892.871061 32.769922
-206.367132 -892.871518 33.014433
-206.788790 -892.857239 32.215160
-224.424556 -892.805092 -1.119462
-212.312787 -892.853361 21.745771
-206.481994 -892.850100 32.790296
-229.545980 -894.646757 -12.005461
-206.371273 -892.848100 33.010690
-282.838240 -894.896291 -112.139379
-206.457120 -892.873085 32.844914
-206.366724 -892.859409 33.005705
-246.427647 -894.424955 -43.512549
-212.644845 -892.852024 21.231000
-211.075097 -892.858874 24.168481
-206.480276 -892.849280 32.790274
-206.349492 -892.843049 33.038621
-295.508713 -894.863860 -135.596534
-206.460375 -892.871763 32.848089
-212.844309 -892.872296 20.839670
-210.954756 -892.875744 24.379927
-205.630065 -893.352324 33.972759
-205.605293 -893.350954 34.016432
-206.736419 -893.357872 31.891768
-205.569366 -893.351336 34.086646
-205.636449 -893.352109 33.956213
-205.993051 -894.128444 32.598460
-205.618414 -894.125353 33.305254
-205.600969 -893.350862 34.023860
-205.624193 -893.352370 33.981314
-205.627681 -894.126922 33.292547
-205.579198 -894.126939 33.378396
-205.597581 -893.352173 34.027992
-205.612616 -893.352051 34.001037
-205.571703 -894.136189 33.390643
-206.700659 -894.149960 31.245518
-205.708504 -893.351760 33.815093
-215.130117 -893.422407 16.080050
-206.021111 -893.356261 33.224687
-205.643133 -893.350563 33.937007
-207.533394 -893.367226 30.364355
-206.387605 -893.358539 32.535627
-206.221966 -893.356457 32.847808
-207.259360 -893.365418 30.881526
-205.875409 -893.351619 33.499060
-206.134441 -893.356936 33.004837
-205.539061 -893.346996 34.133750
-205.632491 -893.348313 33.958083
-206.103554 -893.354715 33.070994
-205.702407 -893.351190 33.824807
-205.657059 -893.348875 33.911192
-206.304716 -894.154271 31.998718
-205.550141 -893.345914 34.111829
-220.971952 -894.281217 4.291028
-205.457805 -893.343977 34.288936
-205.533899 -893.345351 34.146331
-205.779874 -893.350339 33.679957
-205.499182 -893.343951 34.210641
-205.442795 -893.340892 34.317146
-219.473673 -894.342516 7.073158
-205.266006 -893.304735 34.664818
-208.410404 -893.352015 28.758711
-205.627987 -893.350833 33.978510
-205.627825 -893.350967 33.977670
-205.572870 -893.350545 34.081009
-205.629441 -893.352825 33.972269
-205.570046 -893.352029 34.084321
-206.709133 -893.355014 31.933856
-205.994071 -894.126028 32.598530
-205.623968 -894.126802 33.293762
-205.628847 -894.124985 33.286955
-205.582498 -894.126306 33.372827
-205.608695 -893.352244 34.009619
-205.625040 -893.351194 33.979431
-205.608419 -893.350652 34.009664
-205.725332 -893.352742 33.784338
-206.720759 -894.147951 31.214020
-206.984169 -894.150620 30.732704
-205.707840 -893.351754 33.816379
-207.292444 -893.368756 30.813867
-214.304356 -893.434365 17.618822
-205.731944 -893.349943 33.771747
-207.506015 -893.366806 30.431133
-205.641721 -893.348976 33.940945
-207.057527 -893.362049 31.273974
-206.395370 -893.360816 32.515872
-207.233576 -893.371635 30.937998
-252.046401 -894.611557 -54.189648
-205.540339 -893.346263 34.131340
-205.633806 -893.348378 33.955605
-205.701444 -893.350491 33.827192
-206.229971 -893.358820 32.830564
-205.660904 -893.349735 33.907688
-205.507097 -893.345872 34.196785
-206.316747 -894.158171 31.970848
-223.078202 -894.298159 0.425424
-205.458989 -893.343722 34.287445
-205.531054 -893.345555 34.152040
-205.781418 -893.350023 33.677356
-205.498992 -893.343704 34.211195
-221.637058 -894.341370 3.047137
-205.626446 -893.351443 33.979193
-212.601987 -894.128350 20.182575
-205.614887 -893.351132 34.000481
-206.007004 -894.129033 32.581955
-205.570697 -893.351320 34.082898
-205.624845 -894.126935 33.299314
-205.587694 -894.126351 33.369737
-205.607343 -893.351058 34.012415
-205.618341 -893.351475 33.991290
-205.609286 -893.352038 34.009787
-205.553574 -893.348798 34.112806
-205.562407 -893.351382 34.092697
-205.724535 -893.353127 33.785500
-205.575679 -894.135963 33.381056
-205.709711 -893.352289 33.812639
-207.307350 -893.371270 30.800067
-214.660944 -893.422753 16.875591
-205.734281 -893.352510 33.765207
-207.576877 -893.365552 30.299294
-206.415045 -893.359708 32.471369
-207.239766 -893.373141 30.934645
-238.611793 -894.435394 -29.134007
-206.215496 -893.358594 32.857881
-205.664389 -893.349554 33.897018
-206.308459 -894.152424 31.989003
-205.459539 -893.343478 34.287598
-205.506695 -893.344477 34.195476
-205.790275 -893.350285 33.660637
-205.555058 -893.346787 34.102755
-205.428486 -893.340259 34.345904
-205.627924 -893.352979 33.973984
-205.611667 -893.350018 34.006897
-205.571074 -893.350804 34.081888
-205.633298 -894.125709 33.277600
-205.607376 -893.353455 34.014961
-205.624485 -893.354272 33.980291
-205.509688 -894.133785 33.513388
-205.580852 -894.136347 33.377821
-206.999554 -894.149562 30.681272
-205.710737 -893.351433 33.811392
-213.022718 -893.397463 20.054538
-206.413207 -893.363551 32.483482
-206.223192 -893.355463 32.846418
-205.696797 -893.349341 33.836885
-206.217161 -893.360335 32.853315
-205.506583 -893.346642 34.198664
-205.660592 -893.350786 33.903092
-206.316572 -894.160719 31.963747
-205.460972 -893.342755 34.282154
-205.621022 -893.353453 33.980350
-205.572866 -894.136859 33.392448
-205.709096 -893.350232 33.815489
-207.726569 -893.377439 30.008304
-206.421672 -893.355356 32.474604
-205.684887 -893.348358 33.859865
-206.209278 -893.359153 32.869031
-205.462726 -893.344304 34.279358
-205.500784 -893.345928 34.205390
-205.524786 -893.344440 34.160998
-290.049322 -895.168736 -126.981178
-231.163205 -894.444721 -14.835381
-205.621430 -893.353469 33.986301
-205.707727 -893.351680 33.817124
-211.156962 -893.400519 23.478560
-216.911805 -894.233536 12.044662
-205.527143 -893.347361 34.161445
-205.605827 -893.351736 34.009830
-207.834528 -893.363129 29.818061
-207.221789 -893.361027 30.969154
-205.556933 -893.349242 34.112804
-207.890398 -893.375411 29.702700
-209.088242 -893.385359 27.446755
-207.166027 -893.370031 31.066076
-206.714621 -894.410489 31.236687
-206.008218 -894.456492 32.527574
-206.722769 -894.410391 31.213720
-206.029959 -894.450958 32.476756
-205.522975 -893.294125 33.994647
-206.242250 -894.436439 32.071075
-205.573052 -893.287359 33.910992
-205.586442 -893.287155 33.885880
-205.609425 -893.283295 33.850756
-206.175113 -894.439978 32.187881
-205.602946 -893.294508 33.891340
-205.549258 -893.311165 34.028781
-206.165456 -894.434240 32.111105
-208.212312 -893.204576 29.166740
-206.344215 -893.236966 32.667271
-205.727028 -893.290320 33.780175
-206.997507 -893.217507 31.447778
-208.006944 -893.204089 29.540482
-208.569874 -893.205711 28.500627
-206.945865 -893.208141 31.541446
-206.664781 -893.225249 32.071755
-208.221882 -893.208100 29.158059
-206.113369 -893.252390 33.096534
-205.561836 -893.318580 34.075065
-205.720453 -893.289642 33.802962
-206.495493 -893.232649 32.399893
-205.842150 -893.275878 33.589417
-205.770102 -893.283800 33.722529
