ply
format ascii 1.0
element vertex 1532
property float x
property float y
property float z
end_header
31.839133 47.340000 -78.096429
32.707795 47.274263 -78.243791
30.697757 47.194546 -77.272026
32.529802 47.218451 -78.268525
32.170939 47.360504 -78.178798
32.087805 47.128986 -78.374575
32.561889 47.072130 -78.268802
32.256784 47.134271 -78.332674
32.159539 47.161630 -78.335085
32.183557 47.170582 -78.325804
32.585727 47.166042 -78.263363
32.131257 47.243491 -78.276249
32.564434 47.538203 -78.184361
32.188185 47.130203 -78.348826
32.048700 47.293304 -78.222100
32.704155 47.299023 -78.245405
31.360186 47.464216 -76.687354
32.271451 47.234268 -78.279934
33.080744 47.345243 -78.187877
33.674645 47.837045 -78.333443
32.156019 47.315602 -78.216847
33.259268 47.347782 -78.114957
32.083070 47.255292 -78.264451
32.102547 47.288001 -78.235617
32.696708 47.273580 -78.246142
32.601345 47.303611 -78.252454
33.672471 47.836337 -78.333993
32.261856 47.116004 -78.340900
33.570216 47.588333 -78.177501
32.059549 47.295865 -78.221591
32.497168 47.269982 -78.261421
32.232821 47.230308 -78.282668
32.334674 47.188931 -78.298271
32.476204 47.125184 -78.289061
42.529546 52.535890 -80.997307
32.015662 47.153245 -78.372040
32.106760 47.130241 -78.367797
33.482696 47.782786 -78.321492
32.176381 47.359414 -78.180045
31.916884 47.328646 -78.145072
32.460697 47.138778 -78.291316
34.805442 48.623156 -78.711051
45.727595 55.107255 -80.374053
32.113047 47.172925 -78.335176
32.139593 47.356350 -78.174725
33.820693 47.921630 -78.363598
33.709941 47.856698 -78.342601
32.146636 47.486234 -78.023690
32.262550 47.116094 -78.341336
32.559724 47.083884 -78.269961
32.864253 47.367710 -78.237271
32.623020 47.164038 -78.253862
32.013865 47.070589 -78.449268
32.139740 47.179912 -78.325944
32.009863 47.071062 -78.449896
32.218566 47.211998 -78.297582
45.398088 54.941995 -80.286166
32.734972 47.340920 -78.244684
32.565194 47.209890 -78.264210
31.868305 47.327973 -78.133613
32.048276 47.294054 -78.221623
32.125785 47.117146 -78.373424
32.764973 47.335294 -78.241367
32.172307 47.130378 -78.352071
32.150956 47.164703 -78.334061
32.669394 47.275935 -78.248218
33.221342 47.390174 -78.165477
32.213158 47.199717 -78.298898
32.580869 47.060383 -78.261102
32.009806 47.288300 -78.223552
37.852403 51.141734 -78.256192
32.011688 47.283093 -78.229617
34.299960 48.379896 -78.576615
32.478234 47.130990 -78.288605
32.201339 47.353192 -78.188967
32.348259 47.190788 -78.294650
30.927501 47.213887 -77.560676
32.126341 47.174085 -78.331867
32.815858 47.345366 -78.237859
32.262554 47.116893 -78.340984
32.023888 47.153397 -78.369214
31.902780 47.328444 -78.143369
32.725792 47.330137 -78.245031
32.110630 47.129976 -78.367065
32.464671 47.137955 -78.290512
33.864679 48.161128 -78.463128
32.596313 47.171964 -78.260129
32.612849 47.199595 -78.256495
32.617945 47.557017 -78.192840
32.078738 47.309935 -78.208601
32.226733 47.230523 -78.284336
32.612856 47.196214 -78.255865
32.142269 47.317162 -78.212709
34.359570 48.409630 -78.592186
32.713015 47.324436 -78.244675
32.511916 47.284905 -78.256717
32.723073 47.315751 -78.244894
32.351464 47.139801 -78.313019
32.654420 47.299425 -78.250514
35.493223 48.870055 -78.828313
31.962812 47.148661 -78.392433
32.155497 47.163539 -78.334001
32.116633 47.129196 -78.365296
32.257154 47.114974 -78.341376
32.551479 47.170709 -78.270531
32.119622 47.097819 -78.386365
34.530437 48.279447 -78.501449
32.553402 47.170905 -78.268849
30.700770 47.194351 -77.273208
32.228908 47.194539 -78.305360
32.372079 47.257929 -78.267864
33.929982 48.130172 -78.458706
32.055833 47.288616 -78.227657
33.207126 47.377586 -78.161721
34.449718 48.374560 -78.580027
32.341729 47.122147 -78.320278
32.219279 47.134948 -78.340896
33.231589 47.387385 -78.159368
30.683388 47.167292 -77.238894
32.229603 47.233208 -78.280838
32.478531 47.159814 -78.283937
32.694513 47.262953 -78.245006
32.299212 47.244853 -78.274908
34.990078 48.632578 -78.707014
31.906328 47.314707 -78.169676
32.337668 47.124265 -78.320878
32.133048 47.208488 -78.304912
33.692796 47.847748 -78.337207
32.441716 47.267585 -78.262085
33.590708 47.611071 -78.190579
32.156179 47.319833 -78.213439
32.028158 47.312487 -78.197444
32.131006 47.345000 -78.183598
32.582759 47.060706 -78.260172
32.227802 47.229739 -78.282996
32.149868 47.130390 -78.356761
32.131210 47.070849 -78.401750
32.075174 47.247435 -78.273195
32.612233 47.198563 -78.256674
35.080570 48.735588 -78.771368
32.131545 47.126900 -78.362911
31.902652 47.314591 -78.166954
32.176254 47.122401 -78.357668
33.392138 47.462937 -78.146532
32.109047 47.153294 -78.350804
32.228752 47.205593 -78.298150
32.697895 47.300515 -78.245621
31.318916 47.433975 -76.674128
32.072204 47.121158 -78.385522
33.558214 47.579795 -78.177547
32.131774 47.347432 -78.181352
33.283918 47.425501 -78.164731
32.079912 47.256689 -78.264891
42.068264 52.301062 -80.849938
32.018389 47.284141 -78.230796
32.688417 47.261603 -78.245756
32.397869 47.259039 -78.266981
32.203015 47.199310 -78.305022
32.141265 47.355846 -78.175478
32.028944 47.316450 -78.189782
32.235544 47.175934 -78.314003
30.933014 47.214740 -77.565805
33.628042 48.133054 -78.417016
32.422680 47.250862 -78.267726
31.963173 47.140208 -78.397724
32.206933 47.130974 -78.345832
32.396118 47.258384 -78.267027
32.473981 47.124812 -78.289923
32.157870 47.314703 -78.217141
32.567993 47.198340 -78.265115
32.521752 47.217333 -78.268604
33.078025 47.341340 -78.185707
32.448713 47.085914 -78.302118
32.247192 47.222768 -78.286315
33.160708 47.469250 -78.227381
32.302948 47.245945 -78.274500
33.250079 47.480562 -78.211495
33.464156 47.769681 -78.322774
32.236543 47.175040 -78.315525
32.201823 47.197816 -78.306059
32.057006 47.328721 -78.183144
32.120592 47.111538 -78.376886
32.228075 47.175657 -78.316329
32.480197 47.160108 -78.283337
32.035923 47.126175 -78.392329
32.542152 47.285630 -78.255483
32.171670 47.317850 -78.216586
33.161597 47.446968 -78.214161
31.029349 47.224512 -77.633240
32.152874 47.357560 -78.177995
32.151666 47.132380 -78.357083
35.477924 48.863414 -78.822249
33.153852 47.444456 -78.213281
32.325220 47.184579 -78.299046
34.849455 48.427255 -78.555817
32.662151 47.232104 -78.248709
32.604744 47.200518 -78.258020
32.232604 47.175482 -78.315469
32.128054 47.348073 -78.179246
32.013929 47.289841 -78.222841
32.436006 47.265018 -78.263411
32.110137 47.152889 -78.350429
32.205077 47.216287 -78.294079
32.108967 47.109057 -78.383855
34.825559 48.635382 -78.715789
32.553025 47.208034 -78.266357
30.809888 47.145633 -77.432687
32.297212 47.232159 -78.280050
32.266389 47.228920 -78.282972
35.085964 48.736747 -78.775109
32.505500 47.219433 -78.269768
32.646883 47.295263 -78.249601
33.107896 47.343763 -78.177726
33.149544 47.461778 -78.224578
32.706657 47.299584 -78.244823
33.662200 47.848884 -78.340569
34.167840 48.298484 -78.534900
33.754709 47.692049 -78.196203
32.458584 47.135439 -78.291768
32.558518 47.202887 -78.265466
32.496719 47.269365 -78.261469
33.510037 47.794987 -78.322815
32.229655 47.355627 -78.192657
32.703196 47.324439 -78.245259
33.111133 47.344049 -78.175786
32.596087 47.160485 -78.260929
45.296932 53.911246 -81.775171
33.061964 47.232512 -78.127786
32.121475 47.246743 -78.273914
32.137986 47.176916 -78.326128
32.654121 47.308684 -78.248451
32.422338 47.249375 -78.268204
32.593139 47.157676 -78.260603
32.075643 47.308470 -78.209075
31.568153 47.313588 -78.156094
34.664687 48.445600 -78.607716
32.134699 47.072930 -78.401977
32.117123 47.174146 -78.332729
32.634132 47.308395 -78.249566
32.014082 47.064762 -78.455187
32.047013 47.310552 -78.202532
33.278372 47.440649 -78.177513
35.535947 48.890676 -78.837454
32.225034 47.210217 -78.296646
32.441040 47.062611 -78.308772
32.033316 47.117133 -78.402954
33.515190 47.796109 -78.323109
34.888023 48.579190 -78.682417
33.590082 47.619485 -78.200188
32.479322 47.161991 -78.284253
32.652451 47.227218 -78.250076
32.085519 47.256498 -78.264676
35.334299 48.775402 -78.773861
32.579212 47.149163 -78.264025
33.657121 47.844663 -78.337903
32.177718 47.124748 -78.353135
32.614866 47.232225 -78.255567
33.466186 47.526856 -78.171639
34.240568 48.331074 -78.553256
31.454612 47.540469 -76.713873
32.214415 47.127815 -78.345571
32.693646 47.326731 -78.246850
33.208358 47.378410 -78.161942
33.923923 48.109813 -78.448837
32.639637 47.304928 -78.249429
33.124762 47.435185 -78.218482
32.711402 47.329000 -78.244777
32.371852 47.254389 -78.267160
33.820470 47.919246 -78.361064
32.558145 47.073963 -78.270154
32.210475 47.232139 -78.282984
32.116574 47.173441 -78.333575
32.607330 47.210957 -78.257337
32.248660 47.231532 -78.282061
32.701034 47.297392 -78.246555
32.199679 47.204613 -78.301855
33.687509 47.844804 -78.333966
32.127424 47.345920 -78.180900
32.623184 47.218193 -78.254827
32.127764 47.338494 -78.190492
33.246649 47.477665 -78.210530
32.208069 47.127098 -78.346210
32.243706 47.222893 -78.287288
32.155417 47.180903 -78.319528
32.146469 47.166650 -78.333893
32.126731 47.343282 -78.180051
31.958590 47.324593 -78.164735
32.606891 47.195052 -78.257845
32.207535 47.172808 -78.319322
32.330786 47.244964 -78.274118
32.219875 47.133590 -78.340493
32.595941 47.157023 -78.259856
31.262319 47.499518 -76.769916
32.522469 47.067724 -78.281371
32.211996 47.200677 -78.300583
30.934147 47.212993 -77.565564
32.482111 47.159014 -78.283296
32.057412 47.292300 -78.225225
31.310958 47.428523 -76.673918
32.241854 47.229844 -78.283367
31.277857 47.391846 -76.649903
33.234847 47.329969 -78.112687
32.725809 47.313844 -78.244824
32.607819 47.302401 -78.250901
34.570811 48.298925 -78.509126
33.571115 47.611048 -78.202454
32.641568 47.308063 -78.249032
32.105206 47.244527 -78.275098
32.448191 47.086920 -78.302218
31.992245 47.328901 -78.168153
32.688246 47.262290 -78.245819
32.099606 47.295119 -78.227501
33.946358 48.117376 -78.452007
32.596093 47.174451 -78.260290
32.332432 47.246718 -78.272335
32.575502 47.066959 -78.263196
32.586024 47.168696 -78.263103
32.608634 47.227947 -78.256423
32.039548 47.242143 -78.279077
32.233329 47.175603 -78.315896
32.323109 47.186215 -78.299596
30.698985 47.189287 -77.270985
32.480480 47.128494 -78.287831
33.532307 47.586958 -78.195322
33.319517 47.415997 -78.141870
32.338664 47.124359 -78.319609
32.666094 47.321696 -78.247201
34.190728 48.108473 -78.434560
32.560974 47.204435 -78.264904
32.854054 47.369840 -78.237050
32.880197 47.371598 -78.236485
32.039864 47.307567 -78.204396
32.739907 47.604927 -78.212640
34.901320 48.450564 -78.567530
35.100571 48.685888 -78.734018
32.568474 47.198961 -78.265058
32.186427 47.157588 -78.331560
32.132275 47.258783 -78.271024
33.267494 47.899085 -78.317469
32.216479 47.232520 -78.282566
33.322237 47.417778 -78.142229
34.198887 48.103028 -78.427889
31.312553 47.426545 -76.671921
32.521105 47.221451 -78.268617
33.223007 47.404182 -78.174134
32.798010 47.346365 -78.239376
32.016099 47.065514 -78.452534
32.109620 47.109436 -78.381909
32.699539 47.274067 -78.244809
32.528385 47.271927 -78.259791
31.578713 47.313257 -78.159086
32.231466 47.201539 -78.301503
31.341785 47.542060 -76.766747
32.463895 47.138599 -78.291304
32.178607 47.169241 -78.327111
33.041237 47.320771 -78.188220
32.085270 47.236467 -78.283186
33.593276 47.622187 -78.201400
35.393336 48.904849 -78.866207
34.172786 48.243658 -78.514750
32.068974 47.156947 -78.354040
32.159011 47.316196 -78.216501
32.215260 47.111717 -78.353041
32.073294 47.125319 -78.379574
33.089109 47.347911 -78.186967
32.203793 47.111049 -78.351751
32.137940 47.204264 -78.305783
32.969315 47.254990 -78.179966
32.157521 47.186567 -78.318915
32.262041 47.178030 -78.310670
34.786224 48.615162 -78.705763
32.019369 47.300292 -78.209982
33.281352 47.421064 -78.164305
33.500757 47.787273 -78.327836
32.157353 47.326186 -78.208012
32.304740 47.245086 -78.274377
32.064413 47.153695 -78.359852
32.447090 47.259907 -78.264640
32.769786 47.616355 -78.217699
34.203087 48.104518 -78.428011
32.208627 47.209783 -78.297141
33.852602 47.939633 -78.371295
32.576167 47.144959 -78.264574
391.298446 67.545996 -23.399055
171.933285 89.361974 -21.747041
358.525523 66.634350 -30.256469
212.458185 79.792187 -77.884685
137.294238 69.008775 -49.085302
268.605087 131.805273 -23.463461
334.807744 73.031843 -170.282551
207.419266 93.103476 -61.705807
151.784572 30.896755 -110.373056
259.477266 120.867091 -28.828259
192.403215 61.282577 -37.986228
116.321513 45.913040 -73.596405
133.485831 42.666041 -78.365062
257.913258 81.728352 -91.655005
346.477567 155.569985 34.307482
382.519898 136.097107 -54.595918
222.948412 13.559727 -136.151078
330.848460 121.552073 31.794643
233.616524 82.934312 6.309541
179.319816 90.126918 -22.232327
164.245227 40.079106 -90.791787
176.928219 59.518174 -41.761249
141.856828 76.145441 -66.566037
177.672963 48.022461 -68.462406
274.589951 93.725483 -14.226837
265.043400 107.312247 -56.960231
297.074440 74.780412 31.352726
308.698137 84.292000 -182.608848
195.882479 68.745312 -143.500577
391.156203 140.138811 -51.878169
274.653225 127.656935 -21.269684
211.045299 39.895917 -82.320806
219.220346 60.869141 -133.890505
319.623632 126.883944 24.434038
337.104204 72.609566 -172.239799
138.735679 55.464671 -62.269810
224.079905 82.822239 -81.863687
106.538879 48.997893 -68.136789
368.730323 123.924977 -51.997738
94.749493 43.646822 -66.494322
184.683725 90.174255 -40.143284
229.684356 58.850349 3.315780
309.411304 31.968098 -37.416353
321.268438 49.882577 -50.380907
322.108587 160.061726 5.309366
267.160900 126.114095 -22.693721
281.220275 88.143389 -104.477137
88.150004 55.085324 -59.603451
188.170462 18.533311 -122.928482
172.252450 48.564311 -67.238882
180.477602 77.557441 -82.194383
382.670769 137.943859 -47.535049
283.779201 81.379575 -72.716294
364.785571 3.917820 -147.035306
208.231049 36.034600 -89.258264
262.666157 35.254905 -101.853961
116.994300 65.879152 -78.858802
333.858042 105.111405 -87.246229
295.261944 67.015346 -44.869975
68.843119 45.016717 -69.994853
167.968603 48.136769 -71.069341
148.119537 53.893688 -29.003610
169.727008 57.974741 -57.274119
420.627903 150.906523 32.613552
129.705175 65.509231 -50.170408
157.326016 42.147597 -81.074337
174.317428 51.558032 -43.700589
271.039122 144.644966 -28.593435
283.994970 145.407089 -5.003723
189.941200 63.497552 -125.263909
74.198258 45.436909 -69.560510
278.554092 31.851877 -104.189530
89.733010 50.820367 -64.207327
385.495040 97.459353 44.726819
134.047417 41.842815 -87.528980
233.266197 81.187618 -88.722605
136.819459 72.029495 -67.945821
100.011880 44.992308 -66.754885
135.701284 47.081720 -66.147964
290.957006 152.003299 9.064035
210.967836 71.185035 -27.285363
271.579265 107.398892 -60.355461
99.445079 48.363539 -70.002774
90.103991 44.430286 -67.641437
218.667540 98.536709 -32.500901
155.411194 55.830903 -65.321652
200.616629 88.921647 -63.290547
66.744040 45.739058 -70.840327
218.524596 101.186076 -8.124448
113.228710 41.902157 -81.899031
181.945073 72.312192 -93.016181
129.090481 55.134704 -62.097583
290.228194 92.498231 -105.256527
264.828565 108.036357 -20.178874
142.187791 49.273360 -64.619809
176.934979 60.353673 -51.391075
250.147672 76.037231 -165.356324
338.467112 108.214619 -81.845291
122.593055 53.749225 -58.789001
115.081988 31.299734 -104.409388
294.109101 78.766972 -87.023591
73.276213 49.876903 -67.152878
127.887306 52.216352 -64.087129
381.447018 97.482445 59.525882
158.140509 48.906581 -66.607030
288.438657 116.650303 -3.256233
89.170396 46.253263 -73.766981
354.528039 109.268915 -88.547161
57.134293 45.577559 -71.675554
346.230120 109.025548 -102.905254
260.519798 105.010435 -61.173411
146.788536 56.656535 -62.619846
338.638028 106.864199 -81.021093
96.281889 48.042323 -70.932835
47.047118 46.922757 -75.562853
195.168449 85.254709 -35.410571
266.540879 85.224619 -93.120900
158.410673 24.293843 -112.991786
85.694626 50.525203 -65.352408
331.426107 169.010117 9.851725
273.569995 105.154425 -14.179158
89.418149 44.413679 -67.866908
127.504500 55.655756 -60.658919
335.983387 86.905900 -200.204340
110.313933 52.463429 -63.849964
175.676097 20.406375 -122.138771
341.192912 115.892587 -0.902107
89.290154 46.552741 -74.382357
186.748632 48.680382 -70.367695
93.695483 56.145453 -52.919953
195.549690 86.059508 -36.961340
117.930050 60.941433 -46.086724
385.257826 134.474377 -50.635153
105.497645 49.535165 -65.285950
389.046992 84.423065 14.413528
218.180871 75.653400 -26.243930
191.081730 63.426319 -36.269748
166.519591 81.340918 -40.496805
210.070241 72.900712 0.713360
285.052873 149.515834 -3.081491
65.446369 48.225471 -67.198634
167.254657 55.108122 -21.235396
166.662989 82.684507 -65.020978
310.708740 123.058146 15.138486
124.951388 66.476434 -79.838879
278.486871 147.620170 -15.209008
194.350508 48.513875 -58.418101
127.446767 52.153087 -64.045376
254.221375 98.552461 -59.664383
129.146041 67.491476 -50.993724
315.659165 121.716601 -8.743137
263.054200 111.547669 -22.148795
194.173835 60.385448 -127.745990
194.883521 48.075459 -67.817879
179.813531 83.894439 -64.304664
247.489515 76.006871 -159.126265
258.060221 122.173587 -24.856951
138.094308 55.820473 -63.694584
87.948642 54.093895 -56.059564
168.378483 46.003291 -70.485793
251.909328 79.483905 -90.115167
82.993298 51.699004 -66.878581
207.378332 97.050963 -23.303003
149.556554 54.777756 -56.975184
102.389509 53.428813 -57.788833
134.379290 69.984854 -50.269833
275.608906 78.927541 -176.510882
238.236183 81.079953 -91.352329
205.691420 78.635181 -77.744786
170.029813 70.521673 -39.808636
242.152453 28.338717 -104.285978
347.109368 51.108153 -53.944214
266.299882 111.816156 2.639401
215.155448 94.991355 -18.774260
276.222263 87.628706 -103.785576
394.898177 116.129706 15.507667
105.387237 49.513524 -58.497204
386.266717 99.525090 23.188252
256.943906 71.589543 -96.533228
143.218210 67.906351 -38.845130
91.757880 59.057973 -55.698486
136.254626 64.138636 -33.465972
255.567096 60.394085 13.395372
386.786716 28.932713 -116.018691
372.636959 28.637691 -29.127800
305.644541 66.375613 -29.935214
126.922263 54.705564 -49.959235
174.311416 51.551679 -60.934728
74.114433 50.645777 -69.497009
217.297063 64.380258 -27.465085
374.903990 211.389484 28.593354
122.664418 55.183093 -54.002419
157.530583 47.245849 -63.660671
120.109121 51.311315 -46.214994
171.657253 56.148939 -53.604393
237.306656 100.916601 -12.624427
341.056028 138.685224 38.195917
304.614347 102.821583 -8.127860
370.141324 43.617759 -68.979985
262.103966 64.228659 -147.898535
139.522297 78.238484 -42.809468
189.668327 73.044653 -2.139764
271.648386 83.410787 24.538192
361.942161 -13.893160 -186.838421
104.142499 55.070850 -48.075546
304.109304 78.450539 58.651184
68.225748 49.467945 -68.510810
201.143439 83.706893 -82.011301
373.332446 32.849423 -84.392533
82.384301 45.143855 -68.958641
39.903296 47.430919 -72.979702
193.112272 59.715981 -58.122720
191.453992 46.897637 -74.861097
408.282991 208.245829 47.531184
218.702784 43.686552 -75.788182
309.719941 127.384860 23.865063
288.031809 150.295520 -25.299212
131.743766 49.500258 -65.786240
187.216392 67.481748 -14.246347
103.437170 54.480534 -56.042798
185.035799 73.556313 -79.064554
109.968675 51.224276 -66.204952
311.386082 89.472786 -1.863974
219.301931 94.175855 -7.787051
430.253704 26.915834 -120.458133
201.409855 71.636324 -84.459996
358.807010 74.904808 -178.686752
175.467045 65.140087 -18.068473
328.011261 104.502883 -88.030798
196.605341 65.872365 4.816910
293.201008 95.557406 -6.304462
141.164372 53.741721 -60.147942
239.440741 39.673181 -85.743143
422.467532 -17.308566 -188.801369
227.909606 89.336241 0.690182
198.533081 83.153105 -10.190357
333.671187 94.111534 -92.186690
391.197862 -6.567126 -177.574793
211.739617 44.536158 -70.198172
155.419391 79.747456 -37.227477
99.606121 52.377056 -48.395157
326.045413 32.739108 -109.800136
308.755121 99.188076 -1.996931
124.681788 55.910413 -60.132747
145.559278 49.052978 -66.435285
219.245201 75.814723 -25.964996
74.053312 49.805806 -67.466142
208.742873 79.270916 -7.879784
157.344376 47.022360 -64.208361
250.521607 17.671374 -60.480941
220.060354 88.549202 -29.795695
353.384525 94.068243 -96.799633
111.369101 58.214477 -47.109332
349.379476 148.954550 -10.592606
243.518699 48.058461 -65.714643
94.100030 56.093445 -55.639003
174.755578 43.866925 -77.597970
379.378303 94.630671 26.067330
68.872009 48.212720 -66.801965
388.142045 98.223000 44.891232
257.336846 79.550482 20.578932
235.369471 48.066211 -67.293664
238.667173 86.310195 7.598538
155.202898 79.456777 -34.200788
274.977041 114.672328 9.032245
284.378031 118.604252 -0.723078
389.908960 68.343215 -22.768589
347.815329 27.213747 -99.288236
104.667798 49.338077 -65.833582
163.183514 64.558021 -39.893232
251.419721 39.320370 -80.001626
245.531543 129.832070 -15.875087
203.065597 50.074766 -61.978458
161.857499 71.116908 -25.410380
158.798881 71.311497 -34.125721
143.195594 77.688417 -42.930428
86.992405 43.956794 -67.651639
414.544791 -6.113987 -50.681652
378.928062 115.586876 -82.158409
421.998095 52.782732 -48.317542
127.461313 60.419515 -49.156852
202.263283 37.025901 -88.074936
382.057901 137.747484 -47.862519
372.380933 107.609896 -84.920069
303.932491 115.139614 22.862400
225.575352 81.976628 -1.528506
193.653514 48.118815 -67.762325
381.424282 111.317599 -86.939372
99.909518 53.379092 -63.897247
147.159018 64.155168 -25.496469
328.767725 122.513129 19.671936
383.200056 138.007516 -52.560745
90.552498 58.301763 -59.873454
395.014408 50.003059 -37.863259
380.483216 94.110428 18.382375
110.565527 65.505722 -50.886011
419.005155 152.309806 47.205672
284.535686 89.605099 -10.495501
245.380682 105.143381 -15.278900
121.849787 70.944466 -47.702428
227.859462 67.115868 -27.290932
102.560586 42.315423 -79.880381
249.943042 109.702440 -10.035107
359.891731 37.126728 -81.750544
183.795498 48.095400 -58.498796
360.404932 118.911252 52.373815
360.972379 122.101428 -52.677328
350.320096 49.375379 -40.955393
399.836716 188.546059 30.586283
351.898669 88.565329 -206.964094
120.225026 59.194880 -51.259039
425.647926 75.019864 -197.883263
180.036825 58.664161 -59.536866
96.669200 51.903437 -63.426489
345.984474 53.927094 -45.265560
411.560636 151.139622 57.694647
87.185313 51.066470 -65.775125
82.546105 50.513229 -67.408646
358.959155 29.251010 -30.831867
410.920890 -17.753603 -182.214878
200.160594 91.202474 -62.339514
268.460640 111.791798 -109.102763
131.627351 61.244434 -33.450166
234.031141 75.170439 9.480942
186.916153 98.888086 -40.503947
431.093164 82.183767 -201.177003
371.213480 150.446359 48.041372
428.580245 -25.764442 -202.556058
151.768409 69.393673 -29.064189
406.431166 123.015916 -92.570067
320.300144 131.089000 29.283204
228.549383 94.504458 -25.480916
267.189245 97.822810 -59.420688
256.277303 112.423327 6.127183
399.032199 69.746191 -7.267870
277.018093 58.573637 26.319901
215.775414 47.428396 -64.360261
135.203240 47.750393 -63.901506
190.268995 46.974789 -61.393088
130.721729 60.439485 -40.707132
72.542153 47.965253 -72.577657
72.108996 54.186109 -59.270796
67.063931 56.022789 -63.874151
51.472612 56.109764 -71.197276
66.869784 47.317910 -73.784406
62.512377 49.798005 -71.821259
62.193228 55.047555 -67.692363
60.364830 55.004181 -68.120220
73.581184 51.976459 -57.923044
62.703451 49.482067 -69.881819
71.082118 46.527870 -74.060773
71.214042 51.556706 -60.122741
53.105005 57.223654 -70.254732
53.616121 54.937653 -70.533323
54.294580 52.920385 -73.673403
68.505072 53.233026 -59.902708
57.883416 54.121300 -68.761679
54.568992 55.172503 -70.274011
74.119173 53.154444 -56.890406
64.406241 62.928397 -66.264388
54.255117 52.930147 -73.678240
64.343123 51.159841 -65.083039
59.385367 54.164609 -78.858975
64.330206 56.641574 -63.465419
70.008310 44.892987 -69.821886
67.826902 57.727863 -62.710198
67.960100 47.333212 -73.500568
60.150948 55.833846 -66.328407
70.385155 47.091082 -74.690680
67.543980 52.213445 -63.971854
115.058763 54.306736 -101.388724
69.923663 54.744882 -59.247910
59.353946 54.920623 -66.353884
59.717654 55.653842 -66.570029
79.192559 68.172348 -59.233576
53.098731 56.675895 -70.871194
60.019810 55.066688 -66.090552
68.597422 46.879730 -73.887668
67.431132 53.763956 -60.155660
52.844280 52.980941 -73.779936
72.303869 45.281845 -76.398550
63.748332 50.609054 -67.038889
71.087402 58.636836 -61.449465
68.112272 48.893426 -59.363180
62.925436 49.446745 -69.510292
69.092305 52.472656 -64.652147
69.684381 49.597098 -72.893380
64.004878 52.358719 -66.392823
66.834673 48.753178 -71.005353
55.161684 55.814123 -69.775227
76.298225 40.984277 -71.302118
68.401867 58.581827 -60.774148
66.219666 51.115121 -78.642739
67.019236 50.487951 -70.970210
59.238592 52.482766 -75.794074
58.766382 53.104082 -76.679141
70.529717 52.481146 -61.332780
65.222607 53.628769 -63.864336
69.298019 52.536885 -64.722905
69.321166 52.007856 -59.701670
64.364529 49.847679 -71.637801
71.132825 53.068409 -59.377160
59.011235 55.086018 -67.197715
67.777244 47.966369 -71.647612
49.679287 55.310199 -71.732865
62.852837 53.473234 -66.902337
106.373981 54.064723 -98.716375
121.340287 54.648452 -103.489488
67.010190 47.644704 -72.804882
61.453846 56.213614 -65.386890
60.765339 51.669123 -76.940243
68.829170 47.667417 -72.627218
73.423710 46.369162 -75.337589
71.452664 54.891162 -58.625194
51.320133 53.018423 -74.464722
53.914731 57.539908 -70.526224
63.493598 56.292926 -65.668624
69.966666 54.532984 -62.424362
61.175101 55.263602 -66.749602
66.526481 58.019600 -61.808311
52.151946 52.401744 -73.838424
59.351333 52.188996 -77.248265
66.339348 52.299280 -62.885267
77.127742 40.879317 -71.155086
65.662109 57.206745 -64.147170
73.877372 54.990411 -58.621478
61.087784 54.690903 -68.004981
63.224202 55.971078 -64.349639
74.366914 44.446571 -78.582911
49.851839 55.699738 -71.578885
72.927395 59.547711 -55.855286
59.288496 54.962028 -68.485550
111.937789 32.497415 -100.547838
59.281972 53.559084 -68.036357
52.026079 51.784831 -75.867240
86.678063 44.187947 -81.671237
66.631439 52.385332 -62.884814
64.352623 61.075757 -64.133927
63.516600 54.118925 -67.090698
65.983099 53.249261 -66.176167
62.687484 52.641970 -77.509697
68.344502 47.341961 -73.519332
71.559444 50.181419 -58.870124
64.097420 50.141435 -67.405202
66.227869 47.037849 -75.022330
65.401717 53.730229 -63.773533
50.768758 52.951166 -74.283667
61.604698 49.764454 -71.885216
56.387941 58.013630 -68.468363
59.674892 52.596524 -75.774721
66.203728 50.669577 -78.286239
63.058893 51.652289 -66.382829
70.133084 50.027970 -68.135865
54.120200 55.928396 -70.142085
68.939889 45.716857 -70.448074
65.114003 53.100572 -61.630533
70.404561 52.099500 -60.533538
58.181318 53.936505 -68.746266
70.455216 52.709651 -58.344165
68.441772 51.276026 -61.288195
53.999210 52.477556 -76.290785
58.400510 55.009734 -66.890830
68.421779 47.388856 -71.163099
112.775861 32.253159 -98.857669
67.114465 50.990817 -66.053075
67.885965 53.514365 -59.841865
66.737416 50.283230 -66.846016
71.243423 53.346889 -59.381483
56.637416 52.972296 -76.349515
48.043571 55.141835 -72.251804
60.933428 50.001514 -70.394890
61.381709 53.035921 -66.981183
74.987050 46.091407 -76.025947
60.526192 49.708274 -72.000611
54.078811 52.880539 -73.719062
73.496024 41.363781 -71.766071
67.337451 55.895298 -63.847331
62.317808 56.163686 -64.078106
63.407995 55.949670 -65.111779
70.600419 58.870651 -60.763020
65.242369 62.121562 -63.835392
73.114112 47.447621 -73.922982
129.991217 30.887971 -103.715875
64.272717 52.397296 -66.341624
69.360259 51.208897 -59.421889
65.942887 49.518111 -75.830527
63.262652 54.127510 -67.296005
63.882195 57.251892 -62.840750
68.819762 47.663745 -72.101208
77.739810 44.998751 -69.106724
77.658948 45.674357 -76.221752
118.508536 52.936665 -102.276203
63.376798 56.317411 -65.724280
66.767058 50.850661 -65.600153
68.812200 52.332357 -61.865364
63.254695 54.028398 -67.164425
64.324698 56.329911 -63.536370
71.371059 57.468878 -60.404105
60.588511 55.558911 -65.365060
104.955178 33.987754 -96.115927
50.755044 52.826266 -74.900343
62.821616 52.955394 -66.845558
71.181029 57.477570 -60.534135
70.934667 53.634149 -59.517880
69.352438 54.266762 -60.375343
58.240478 54.461540 -68.322382
123.917028 31.593812 -102.242304
72.494990 45.242688 -69.799684
69.639055 58.234282 -58.285279
62.723133 53.338967 -64.800413
64.782666 52.031908 -64.643561
62.550496 55.057330 -67.657729
182.626454 65.732840 -136.472312
66.465220 56.523338 -61.596923
63.865435 49.172448 -70.297154
80.542458 45.843205 -76.258571
70.064508 44.960158 -69.800089
57.924439 52.580653 -68.210244
55.868089 51.955735 -75.676997
55.630834 53.081657 -69.162843
63.691807 57.176688 -62.880811
70.777620 53.850577 -59.556138
68.734001 54.545755 -59.735371
63.104786 59.929856 -65.539992
66.050411 49.331836 -70.308228
66.686341 47.383944 -71.265517
65.644131 52.142487 -62.784538
72.235974 51.554332 -58.313457
77.105437 44.133452 -77.654789
64.924428 48.993831 -71.238169
75.017840 41.229242 -71.478567
65.296395 52.934425 -63.627725
64.883134 52.515554 -63.624207
115.953712 35.405657 -99.102617
65.620308 49.234668 -70.047719
67.867722 52.360217 -63.600096
66.128323 49.354459 -68.822484
69.452802 53.378482 -59.567444
108.266541 36.770948 -97.044115
56.738373 52.631787 -75.947866
62.665335 62.105572 -66.752746
63.613271 48.291057 -71.954222
63.786406 54.107932 -66.987157
77.314368 44.144419 -78.774612
63.974466 56.863807 -65.214930
60.565901 59.508153 -66.705530
64.098098 56.349529 -65.784813
70.117327 66.355103 -63.175651
53.142652 57.262568 -70.313458
56.903310 54.872055 -66.842137
67.651602 47.348036 -73.519992
68.449019 47.874627 -71.591694
67.476897 57.109798 -60.804302
65.139757 52.547144 -77.255528
63.622843 49.810338 -71.716145
57.049087 52.467247 -76.461593
112.768373 52.676414 -100.390423
61.885518 51.566124 -65.964559
61.351968 53.181296 -67.465584
62.685300 51.664116 -75.010135
54.454314 56.033238 -70.110686
72.212660 45.648721 -76.199454
55.456697 55.863936 -69.641719
57.380075 54.213474 -68.547825
62.428897 55.570850 -66.792603
62.369117 54.337492 -67.550824
49.383926 52.758686 -75.110014
63.826861 56.433603 -65.690384
63.187502 54.091464 -67.147666
59.834700 55.053700 -68.301987
55.761247 58.296298 -68.843026
64.916695 53.664014 -66.480246
58.604100 53.800529 -68.634018
71.111497 58.073703 -59.344771
65.629419 56.431887 -63.539851
121.881698 32.285623 -101.418633
60.924140 55.637774 -66.425461
62.552914 51.978367 -77.469616
68.142048 50.481097 -69.243241
60.973453 61.193798 -67.715218
52.383158 54.578329 -70.777418
66.363013 52.079551 -62.658883
67.769189 50.520509 -69.547595
72.704056 51.896021 -54.548615
116.775301 32.508906 -100.132590
69.918066 49.639471 -69.382129
66.870850 52.044452 -64.654389
127.479650 28.805906 -106.021824
83.411582 65.087961 -56.564811
55.263923 54.208438 -69.560355
64.044981 51.650154 -74.872221
61.151490 54.483072 -67.739511
58.897389 55.005562 -67.289958
74.518478 58.497483 -58.417537
55.874025 57.805327 -69.042654
75.267138 44.241463 -78.718287
72.033551 46.397742 -75.339927
65.503453 52.253549 -63.276294
62.468993 60.905721 -67.131750
109.546217 54.336864 -99.717386
69.537716 66.671675 -63.275901
66.790014 53.943900 -65.514792
60.407191 59.531411 -67.954866
63.473082 52.279731 -77.187485
69.425052 46.788119 -73.885806
70.243039 53.505692 -61.845333
76.938343 46.273811 -75.738656
60.619490 54.633022 -68.083843
70.544927 49.495317 -59.170725
62.499940 54.922949 -67.098229
57.680690 52.205431 -76.111475
76.942866 40.705343 -71.972275
67.454411 53.062768 -60.370443
70.402113 58.789039 -60.901999
63.894411 61.606559 -66.079270
64.434076 49.639276 -69.257038
70.823648 52.870746 -63.238614
61.614787 55.328249 -67.120237
65.730974 49.337778 -69.483513
67.825385 56.841967 -63.134552
63.395615 52.739665 -79.146521
52.020058 52.968485 -74.082660
66.970176 52.980628 -62.916488
67.173799 52.625060 -63.955980
74.772765 45.161527 -76.453884
63.718291 56.461137 -63.530344
62.707018 49.030855 -71.520010
60.896028 55.829532 -65.090858
62.520782 59.776792 -65.864861
62.709446 49.314950 -70.308537
64.004634 53.151449 -79.212430
68.198753 50.151038 -70.346506
73.092332 51.773285 -57.151420
72.100790 52.921746 -57.897581
69.742434 47.209075 -72.915469
57.740961 55.120486 -69.068689
124.365767 29.291520 -106.663056
62.121543 49.642324 -71.461423
69.929145 52.411002 -59.608679
78.339612 44.030440 -78.938157
66.626351 55.795955 -64.027653
64.036242 52.797433 -64.031299
63.352367 52.679079 -79.141507
73.344475 51.688975 -59.303680
66.886921 52.203111 -64.507115
77.093342 45.330312 -69.278665
115.743807 53.705269 -101.875155
70.476497 57.862073 -59.595470
75.946504 46.428799 -74.203906
57.736321 54.372810 -68.139905
53.945981 52.902596 -73.723571
71.019663 60.597882 -57.582601
69.870757 53.854704 -60.113135
63.820133 55.647585 -63.122270
116.596695 54.079357 -101.932840
51.512386 56.029689 -71.208996
74.247544 58.351652 -58.538772
65.824132 51.818167 -65.714509
52.240925 52.987735 -73.911428
71.168639 51.491705 -58.600221
67.493237 51.850431 -62.806271
54.263738 52.916547 -73.668578
49.807118 52.600046 -74.939566
57.851700 54.925657 -68.967920
61.816937 54.344602 -67.695741
66.240069 57.954859 -62.007410
60.631893 53.436519 -67.698151
61.472149 52.708167 -67.198160
73.070714 52.030753 -54.117386
174.470858 64.713145 -133.541051
67.316252 47.497577 -73.160349
70.744617 44.952203 -69.658324
54.456128 55.149939 -70.325995
70.591991 47.045037 -74.657615
63.113724 56.783239 -63.427257
69.190634 53.680777 -59.315030
86.229761 40.905451 -84.192364
68.653604 51.880508 -61.188337
54.950283 54.228826 -69.623811
62.958724 52.494428 -66.665462
66.733784 47.789758 -72.452693
67.668787 47.163227 -71.862313
59.478070 59.310079 -67.745412
65.829938 52.721250 -63.333310
69.115620 50.368992 -68.211976
67.238350 50.462152 -71.180106
59.882565 55.036543 -66.302632
59.687683 58.812076 -67.113229
71.745326 48.627149 -71.209884
75.179469 52.467286 -57.074458
52.680194 52.968483 -73.820385
56.012786 53.041435 -69.136391
87.639868 74.666618 -55.060965
50.656577 52.824097 -74.928370
66.144250 53.280382 -66.033334
59.566700 60.609109 -68.101695
68.762922 44.997434 -69.996969
67.658491 47.677126 -72.708260
69.537384 58.929737 -60.310984
70.787583 52.964437 -57.945463
69.431166 47.101951 -71.773602
61.646600 53.183616 -67.406584
65.307014 52.619613 -77.534255
62.298002 61.149628 -66.625220
56.973023 54.319085 -69.066758
49.581792 52.794802 -75.053640
104.482892 52.933350 -98.300822
70.478779 49.273401 -70.535913
73.149217 45.161692 -69.798875
60.005447 59.240542 -66.870524
54.204686 55.357704 -69.966501
71.590221 55.102174 -62.186859
65.659922 57.526915 -62.366874
62.843443 52.213911 -66.687156
66.503389 55.786397 -64.108085
61.005250 49.739141 -71.508816
53.849462 52.148432 -76.453496
89.261752 41.750908 -83.145905
56.907888 54.611052 -79.118487
63.149207 49.059207 -70.491657
55.984595 56.080417 -69.514316
108.739534 35.621588 -97.538227
60.365884 53.101084 -76.518462
53.978191 52.926020 -73.761570
62.856311 53.240933 -66.582821
65.550827 59.427581 -62.925204
60.839556 54.693183 -68.066517
57.932317 55.103410 -68.997579
77.882472 40.643322 -71.948699
54.997976 53.864671 -69.494012
65.730489 49.483349 -70.174891
65.071500 52.934084 -79.360711
68.768926 52.185649 -60.125556
63.855624 55.804121 -66.460966
68.725662 52.244413 -61.930584
69.786477 50.044425 -68.009062
71.381796 51.817592 -60.100255
59.047217 52.940081 -75.882842
68.873097 51.496746 -59.751427
65.911157 58.117091 -62.230479
51.448985 54.274931 -70.995797
65.899757 53.435661 -60.780576
66.102419 51.869996 -63.605190
64.903802 52.924014 -63.729244
75.012336 45.253371 -76.932361
67.181004 52.615587 -61.954918
65.207933 49.327380 -68.976296
62.880131 52.060110 -66.129046
73.089102 47.557559 -72.823698
66.843588 52.476232 -64.323455
70.650898 49.701498 -67.690767
55.026255 55.235345 -70.213993
70.459210 51.232294 -59.002548
70.600815 53.608583 -56.650984
59.416987 58.600352 -66.840103
63.702737 49.719982 -71.392575
64.232842 52.049782 -63.629456
65.551367 48.917453 -71.154563
52.387453 51.878164 -76.184700
132.676501 27.683729 -107.464982
61.517904 59.482214 -66.583276
67.402217 57.366952 -63.367476
64.035361 54.997120 -64.947846
116.749923 33.110194 -101.039944
68.332145 53.900022 -59.817201
73.308906 53.407902 -58.549400
135.529699 27.160929 -109.986656
66.097678 48.333825 -70.744379
121.894721 54.106090 -103.907646
64.669729 53.788217 -66.289106
66.131158 52.180525 -64.173153
70.230539 52.982516 -57.916115
73.408077 53.926295 -55.241223
70.582533 50.129170 -59.531467
64.287071 52.440842 -77.797811
60.595140 53.272969 -67.849084
64.618417 49.257202 -70.226499
68.241465 49.347997 -60.064459
64.049138 56.612097 -63.570770
48.076278 52.005946 -74.256543
51.934822 52.945044 -74.017946
74.056568 51.985350 -53.945859
56.471815 52.154500 -76.251394
61.355613 55.977873 -65.510592
115.812017 31.935936 -99.266082
65.468062 49.622603 -69.062383
60.204310 51.848687 -77.014396
71.744258 58.736515 -57.383574
58.274061 53.455708 -68.526867
62.419389 60.970335 -66.500911
61.514500 53.575240 -67.263155
121.263858 53.234913 -103.048889
69.633549 51.509276 -60.783593
59.434169 52.823056 -67.872319
67.314554 51.741386 -62.720069
66.903076 48.058897 -71.753285
50.212342 55.840966 -71.489699
70.086971 53.523623 -59.461864
55.053178 57.507022 -68.743752
61.448142 55.900947 -64.870607
55.356976 52.784199 -73.656931
164.201513 63.980627 -125.991144
69.517402 52.799968 -64.273439
69.162418 62.807952 -62.323771
63.476529 52.607907 -66.549716
60.689076 51.643362 -76.954630
75.026091 45.192824 -76.992743
62.966683 55.700609 -66.420982
68.926616 51.978995 -59.662070
66.172771 56.474081 -63.578391
66.216435 57.315287 -63.999520
68.290304 50.121245 -70.768054
54.944106 55.588173 -69.790245
63.747039 54.418794 -62.185229
110.721128 42.561645 -84.452567
65.264764 49.592543 -69.439495
29.555421 47.752920 -75.547228
29.909056 47.151590 -75.579277
29.859122 47.225496 -75.587621
29.652101 47.536784 -75.578333
29.542764 47.562196 -75.582425
29.688403 47.413721 -75.587312
29.821890 47.174563 -75.552184
29.453469 47.501614 -75.589376
29.846073 47.292807 -75.589487
29.805325 47.599445 -75.547456
29.672528 47.615505 -75.563196
29.427429 47.455872 -75.586474
29.594840 47.330049 -75.568605
29.590014 47.325187 -75.566901
29.676341 47.584558 -75.569010
29.830403 47.436194 -75.577085
29.555055 47.442997 -75.586137
29.964376 47.076413 -75.563295
29.624798 47.431104 -75.587127
29.682337 47.650018 -75.553417
29.662353 47.266956 -75.549401
29.481172 47.661381 -75.574929
29.994196 47.057500 -75.564772
29.915059 47.691115 -75.491725
29.490377 47.553961 -75.586569
29.810642 47.548120 -75.559923
29.607068 47.320664 -75.567170
29.519130 47.571839 -75.583221
29.544964 47.574648 -75.578997
29.875627 47.175128 -75.577319
29.821255 47.455927 -75.574792
29.661175 47.563305 -75.572363
29.964010 47.083560 -75.568640
29.802599 47.403192 -75.583960
29.675274 47.407630 -75.587958
29.626188 47.307742 -75.566826
29.686018 47.257933 -75.550718
29.858405 47.228068 -75.584589
29.625973 47.309580 -75.565013
29.468664 47.641454 -75.578136
29.908973 47.153941 -75.579956
29.729759 47.406002 -75.585609
29.663280 47.513399 -75.581338
29.651896 47.420506 -75.588079
29.876538 47.215441 -75.585747
29.863998 47.288717 -75.588211
29.932100 47.116699 -75.571650
29.964350 47.078762 -75.561753
29.748396 47.475590 -75.580503
29.791599 47.404905 -75.584950
29.689517 47.256128 -75.550631
29.939719 47.108977 -75.570291
29.510547 47.570882 -75.584967
29.845418 47.196492 -75.576154
29.688360 47.501587 -75.580357
29.583849 47.317611 -75.555165
29.676515 47.637316 -75.557655
29.940783 47.112931 -75.572512
29.856336 47.464472 -75.568888
29.646833 47.456855 -75.584203
29.715155 47.621675 -75.553856
29.632425 47.523533 -75.581645
29.844529 47.604752 -75.536615
29.964269 47.097716 -75.575821
29.956643 47.095452 -75.569553
29.879721 47.514078 -75.555424
29.930269 47.452498 -75.561230
29.801615 47.414639 -75.582695
29.678862 47.589060 -75.566649
29.768348 47.375190 -75.587596
29.462055 47.470741 -75.588456
29.831536 47.310397 -75.589060
29.445723 47.468366 -75.587916
29.538388 47.566171 -75.582258
29.872240 47.192338 -75.580383
29.792025 47.602480 -75.549033
29.452388 47.500755 -75.589808
29.660317 47.507265 -75.584445
29.664197 47.409067 -75.587434
29.782821 47.208921 -75.560582
29.793637 47.367850 -75.587240
29.811759 47.489215 -75.570045
29.679484 47.406318 -75.586044
29.650633 47.469934 -75.585378
29.645111 47.454283 -75.587116
29.604417 47.435344 -75.587150
29.460412 47.465250 -75.588301
29.648030 47.454578 -75.584973
29.555508 47.753295 -75.546609
29.548697 47.465745 -75.588251
29.870485 47.196719 -75.581390
29.654587 47.420226 -75.588669
29.952048 47.092670 -75.566698
29.917100 47.707264 -75.485002
29.819027 47.460504 -75.574787
29.798322 47.555291 -75.557488
29.819674 47.570043 -75.552675
29.743374 47.474296 -75.580458
29.739074 47.389412 -75.585933
29.839472 47.476332 -75.568743
29.806590 47.491989 -75.568992
29.798922 47.552331 -75.556914
29.780039 47.389923 -75.586169
29.598780 47.324136 -75.564953
29.742496 47.382085 -75.587265
29.757347 47.609534 -75.551970
29.661639 47.269606 -75.548973
29.839466 47.195099 -75.576612
29.820951 47.429464 -75.579531
29.770054 47.391360 -75.587205
29.625208 47.307114 -75.565235
29.842849 47.194525 -75.576555
29.793115 47.411026 -75.583047
29.605704 47.318111 -75.566586
29.844374 47.606343 -75.534082
29.580596 47.315190 -75.554607
29.793976 47.361938 -75.588245
29.646407 47.538250 -75.578654
29.646939 47.546560 -75.578428
29.648754 47.424083 -75.585719
29.545994 47.654702 -75.570021
29.764066 47.376985 -75.589698
29.826474 47.205976 -75.575611
29.687575 47.497449 -75.582293
29.696521 47.402011 -75.588175
29.873866 47.219951 -75.585145
29.520396 47.466040 -75.587887
29.692409 47.496752 -75.581381
29.448565 47.540662 -75.589734
29.966131 47.097794 -75.576568
30.064071 47.044626 -75.587803
29.689314 47.255680 -75.547768
29.846114 47.238090 -75.588644
29.873002 47.223251 -75.585377
29.561741 47.637919 -75.571331
29.667714 47.638460 -75.559136
29.797189 47.394443 -75.585170
29.651828 47.538029 -75.578307
29.803745 47.552803 -75.557463
29.700922 47.403705 -75.586259
29.934450 47.205747 -75.589320
29.876707 47.455897 -75.568330
29.790898 47.402352 -75.585295
29.862628 47.198485 -75.581626
29.877059 47.520853 -75.555265
29.630061 47.522027 -75.579407
29.562213 47.644706 -75.569474
29.867604 47.202876 -75.581332
29.861551 47.464800 -75.569096
29.492180 47.554103 -75.587787
29.861265 47.215457 -75.584570
29.548893 47.461942 -75.588971
29.809383 47.359681 -75.587981
29.839726 47.197550 -75.577390
29.674853 47.530686 -75.577006
29.498041 47.538613 -75.587328
29.444379 47.481399 -75.588826
29.868158 47.521062 -75.555041
29.809786 47.492373 -75.572031
29.861950 47.222016 -75.585501
29.991714 47.053401 -75.563882
29.789848 47.432680 -75.578640
29.837935 47.475239 -75.569508
29.613514 47.434847 -75.587930
29.874286 47.195069 -75.579938
29.622335 47.430403 -75.587409
29.782116 47.383628 -75.586508
29.716419 47.396861 -75.585995
29.606106 47.319364 -75.566442
29.846685 47.602678 -75.535967
29.542764 47.464369 -75.588419
29.816892 47.556119 -75.557350
29.460862 47.568123 -75.587608
29.859128 47.689298 -75.506668
29.980148 47.070839 -75.565581
29.626919 47.432487 -75.588055
29.787041 47.374583 -75.587179
29.744442 47.475379 -75.579493
29.676880 47.625131 -75.560859
29.640797 47.494834 -75.584689
29.831096 47.435001 -75.578464
29.929173 47.457506 -75.562417
29.906372 47.468510 -75.561007
29.703116 47.581043 -75.564204
29.753012 47.475561 -75.578667
29.894814 47.517674 -75.550729
29.787692 47.464568 -75.577333
29.685270 47.655867 -75.552527
29.917160 47.709013 -75.482986
29.676369 47.585418 -75.567809
29.846584 47.279124 -75.589458
29.648607 47.533737 -75.578422
29.748557 47.570368 -75.562549
29.832569 47.231055 -75.586347
29.824766 47.533750 -75.558155
29.785947 47.465830 -75.577126
29.592836 47.317734 -75.564001
29.680446 47.409523 -75.587564
29.653865 47.421721 -75.584597
29.779458 47.560538 -75.561324
29.842792 47.207476 -75.583372
29.818225 47.469805 -75.572556
29.624786 47.641636 -75.563991
29.861810 47.466316 -75.569399
29.641542 47.497173 -75.584610
29.677671 47.639408 -75.558046
29.671113 47.421633 -75.588575
29.930707 47.211552 -75.589268
29.718311 47.649046 -75.549141
29.551504 47.438252 -75.586980
29.789834 47.366864 -75.585016
29.658460 47.271114 -75.546978
29.839049 47.206101 -75.578176
29.447925 47.470840 -75.588512
29.706887 47.584859 -75.563993
29.916730 47.710602 -75.482396
29.876779 47.516226 -75.554373
29.841500 47.312072 -75.589074
29.598193 47.320514 -75.564461
29.863374 47.520634 -75.555570
29.955665 47.091850 -75.568314
29.752631 47.477766 -75.576458
29.648214 47.466333 -75.585583
29.752218 47.579390 -75.559100
29.829317 47.426602 -75.580051
29.649632 47.415372 -75.587441
29.641449 47.498398 -75.583867
29.996234 47.057554 -75.567227
29.481598 47.538526 -75.587622
29.929717 47.127493 -75.574611
29.818076 47.465999 -75.575221
29.462801 47.465895 -75.587772
29.821907 47.430072 -75.580126
29.676963 47.637526 -75.558061
29.562207 47.322350 -75.552930
29.626799 47.305957 -75.566111
29.847619 47.576240 -75.545748
29.795845 47.545160 -75.560239
29.461635 47.569989 -75.586793
29.783341 47.385556 -75.587010
29.847310 47.600219 -75.537839
29.828886 47.235640 -75.583420
29.643106 47.487287 -75.584746
29.829238 47.237877 -75.582053
29.554180 47.440048 -75.587760
29.661903 47.436694 -75.587467
29.728616 47.406455 -75.585349
29.563969 47.644565 -75.570556
29.656604 47.545718 -75.577573
29.951927 47.093767 -75.565389
29.841380 47.527540 -75.557527
29.818150 47.569254 -75.551927
29.679367 47.590040 -75.567107
29.691021 47.488717 -75.585521
29.788059 47.203716 -75.560048
29.668795 47.435207 -75.586730
29.766325 47.374426 -75.586370
29.831966 47.435346 -75.577548
29.624099 47.640139 -75.564166
29.837725 47.198560 -75.576614
29.837181 47.225311 -75.578701
29.669778 47.422579 -75.587797
29.650776 47.419953 -75.587120
29.755413 47.602726 -75.554113
29.799402 47.413813 -75.583372
29.848740 47.246794 -75.582702
29.678173 47.411876 -75.587242
29.788147 47.601796 -75.547784
29.882622 47.171236 -75.578524
29.798819 47.415312 -75.583374
29.654905 47.414420 -75.587405
29.724679 47.406631 -75.587532
29.817182 47.542613 -75.559321
29.675486 47.527923 -75.578989
29.596621 47.319943 -75.564124
29.859379 47.527158 -75.554335
29.878831 47.190573 -75.582357
29.786884 47.467112 -75.576452
29.663371 47.270001 -75.548636
29.723712 47.390993 -75.588117
29.944418 47.101373 -75.568580
29.716198 47.395326 -75.586330
29.828985 47.316185 -75.587562
29.758073 47.386102 -75.587958
29.847751 47.578886 -75.543410
29.729926 47.388686 -75.587621
29.597660 47.321150 -75.562685
29.662218 47.562692 -75.573375
29.907182 47.458819 -75.564476
29.864575 47.221743 -75.585340
29.932817 47.466192 -75.560094
29.876198 47.192078 -75.580612
29.957868 47.110197 -75.575671
29.848749 47.582848 -75.542558
30.013432 47.070914 -75.579038
29.455668 47.456309 -75.587051
29.847784 47.199926 -75.577310
29.792845 47.602200 -75.547771
29.465367 47.459733 -75.587617
29.545725 47.465437 -75.585835
29.866768 47.203948 -75.583028
29.932485 47.124460 -75.574529
29.823974 47.534613 -75.560172
29.554057 47.439265 -75.586864
29.634340 47.516874 -75.581333
29.831943 47.200805 -75.575451
29.522038 47.565966 -75.583304
29.735463 47.388908 -75.585942
29.538103 47.569858 -75.583901
29.639996 47.460139 -75.585985
29.591364 47.329314 -75.567661
29.593952 47.327257 -75.566785
29.663183 47.436307 -75.585760
29.855697 47.227301 -75.586611
29.660636 47.537559 -75.574952
29.798004 47.395735 -75.585767
29.547232 47.662436 -75.568770
29.577965 47.325577 -75.561528
29.990771 47.057573 -75.561966
29.620715 47.309270 -75.568978
29.668803 47.638097 -75.558551
29.964020 47.079921 -75.561751
29.913290 47.285601 -75.587775
29.817406 47.564061 -75.552432
29.789938 47.405981 -75.582901
29.667698 47.561430 -75.573973
29.767374 47.374951 -75.586047
29.545935 47.575694 -75.580676
29.677316 47.551125 -75.574771
29.669602 47.416295 -75.588665
29.807907 47.459305 -75.575667
29.939869 47.110317 -75.570648
29.784265 47.601013 -75.547231
