ply
format ascii 1.0
element vertex 1533
property float x
property float y
property float z
end_header
-21.711516 -42.313907 2.544818
-21.664175 -41.895358 2.956569
-21.542078 -40.635775 3.373950
-21.277181 -40.834607 3.823288
-23.717246 -32.685200 9.154467
-23.834066 -31.944778 9.320268
-23.507869 -32.071974 9.346934
-23.274195 -32.294131 9.102984
-23.347288 -31.937554 9.280995
-23.283802 -32.167170 9.315964
-23.494725 -30.849005 9.480474
-16.312070 -42.782344 -4.654078
-16.265457 -42.396106 -4.267965
-16.070805 -42.171413 -4.102989
-20.888678 -36.587862 7.390046
-20.952672 -34.994548 8.081790
-20.245461 -36.570441 7.352979
-18.283629 -38.184278 6.372812
-21.740855 -41.503272 3.072511
-21.477317 -41.210170 3.225659
-18.789167 -42.178978 -2.982042
-23.959344 -32.493098 9.416272
-23.839060 -31.758093 9.295754
-20.990425 -40.906945 4.464811
-23.490148 -30.992996 9.500564
-16.637502 -41.797321 -4.536186
-16.371179 -42.586082 -4.551471
-23.041993 -31.282998 9.441068
-21.840187 -34.934738 8.035464
-22.880940 -30.845093 9.507374
-20.965383 -36.311060 7.387422
-13.146106 -40.515460 -0.832451
-18.461108 -42.614898 -3.631900
-23.982069 -31.666316 9.276745
-23.320313 -32.259799 9.098225
-23.050127 -31.260126 9.405375
-14.599304 -40.798749 -2.278275
-13.432054 -41.223948 -1.662775
-13.787537 -40.714653 -1.504218
-11.644990 -41.664692 -1.170675
-11.870717 -41.129569 -0.246309
-25.927342 -60.681513 15.362213
-24.517989 -60.898272 14.138433
-24.479420 -59.771947 14.280879
-17.541105 -71.808039 -2.118553
-18.083497 -70.377538 0.207085
-19.062171 -69.372134 2.700151
-17.486032 -70.247627 -0.378665
-11.953001 -67.784477 -13.594389
-22.795475 -58.457401 14.442585
-16.731318 -69.976362 1.789366
-16.367411 -68.179849 3.407915
-20.975929 -56.982224 13.396056
-21.129650 -55.042740 13.804457
-21.666150 -53.598062 14.644107
-9.022078 -64.221757 -14.797078
-9.861211 -62.412356 -13.339401
-8.847930 -63.805199 -14.394197
-8.665895 -64.589274 -13.355954
-20.466422 -53.691631 14.125209
-8.648750 -62.377377 -12.909361
-8.281137 -63.832179 -13.140681
-20.350834 -54.360631 14.495919
-20.143923 -52.155999 14.504290
-15.907857 -61.432689 8.744456
-16.047015 -57.947146 10.295241
-15.567679 -59.218302 9.980659
-12.450471 -64.648753 5.684099
-12.946567 -64.238903 6.682815
-14.818919 -59.597100 8.611736
-15.859702 -49.275288 14.060921
-7.981801 -60.687693 5.824894
-15.838468 -48.956275 14.375116
-15.128134 -50.278539 14.611655
-15.514091 -48.300999 14.707749
-2.825662 -57.435379 -5.117088
-6.106557 -59.873587 5.300765
-5.001360 -60.396947 4.331813
-6.229418 -60.473430 6.923377
-15.766161 -46.190092 15.022383
-0.978011 -60.344982 -4.628698
-12.435629 -52.300625 13.572185
-3.709915 -60.868053 2.619946
-6.696158 -58.438212 6.920909
-1.481802 -59.485797 -3.361012
-1.234653 -60.639946 -2.782411
-5.187252 -60.644753 6.400183
-12.791013 -50.329711 13.502175
-15.705932 -45.655907 15.508171
-3.690486 -59.185990 2.152376
-13.693901 -48.660479 14.116489
-13.918334 -48.407447 14.585300
-0.916933 -58.534374 -3.881753
-0.636800 -59.429730 -3.755712
-5.690980 -59.120364 8.427874
-24.503636 -61.765093 14.248235
-24.496359 -60.199037 14.333618
-17.937641 -73.695126 -2.193829
-17.827866 -72.795507 -1.274883
-17.488796 -69.929304 -0.330242
-17.316209 -67.599768 0.973467
-11.932375 -67.801973 -13.499556
-22.255207 -57.647353 13.546654
-21.704657 -56.330640 14.096019
-21.490748 -55.389988 14.957375
-8.421779 -63.604957 -12.944818
-17.888382 -59.631511 10.400912
-16.043688 -60.560027 8.699181
-16.264014 -56.888062 10.222455
-12.339794 -65.239576 5.658877
-14.883763 -59.391946 8.566099
-2.153564 -67.467827 -11.501868
-15.660922 -49.719256 14.138539
-15.546911 -49.125739 14.642602
-15.982855 -47.564707 14.526228
-2.377058 -58.385256 -5.532167
-4.916075 -62.750345 5.113822
-1.965745 -58.776348 -5.106504
-4.741680 -60.885562 4.269704
-5.878807 -61.277243 6.889932
-14.264704 -48.431920 14.072133
-3.453353 -61.418272 2.411926
-0.917823 -59.653026 -4.547759
-0.623892 -61.020103 -3.866872
-3.904466 -59.524511 1.961769
-4.695368 -61.598958 6.193581
-1.177044 -59.922539 -3.110130
-2.378529 -61.811055 1.703506
-13.383005 -49.654653 14.288940
-0.322983 -59.422049 -4.603420
-0.995444 -58.888488 -3.621446
-0.570455 -59.051848 -4.040483
-6.460506 -57.466415 8.360867
-18.214381 -69.971215 -0.757401
-17.813379 -69.485960 0.841058
-13.041754 -65.701159 -11.677554
-22.886101 -57.224516 14.231223
-21.732375 -56.687698 14.085011
-21.115962 -56.142706 13.346790
-9.036668 -64.050508 -14.255159
-8.493673 -65.900214 -14.440891
-8.878288 -62.490754 -12.428251
-20.453570 -54.303326 14.369023
-17.641147 -61.202439 10.496246
-19.946704 -53.272520 14.598057
-16.064833 -60.730972 8.736175
-14.305212 -62.331801 8.602845
-2.323399 -67.178850 -11.382697
-6.547878 -53.969026 -4.880663
-7.403698 -62.277751 5.667176
-5.590748 -61.394605 5.202098
-1.301860 -60.121042 -5.212962
-12.569916 -52.105355 13.454135
-3.035057 -62.512754 2.248298
-5.786834 -58.499012 4.437057
-7.798558 -56.937218 7.536820
-1.215739 -59.265616 -4.625770
-3.723351 -60.053408 1.881033
-3.270658 -59.985088 1.680186
-1.933503 -56.886285 -4.028311
0.101772 -61.071195 -4.207754
-6.094322 -58.337798 8.368879
-17.526774 -70.656448 -0.572993
-12.645049 -65.450496 -12.520841
-22.890848 -57.456973 14.345996
-22.233136 -58.100592 13.613680
-16.461556 -69.302238 2.255619
-21.755923 -55.760197 13.826717
-21.062995 -54.656606 13.692939
-11.417711 -55.345705 -10.058447
-19.835587 -54.105624 14.741971
-12.345450 -65.338451 5.599675
2.588825 -79.128094 -16.375954
0.404076 -69.920754 -11.076055
-0.116235 -68.290696 -10.427559
-15.730610 -49.845032 14.105400
-1.018614 -63.443026 -7.458430
-15.438897 -50.189475 14.750905
-1.881198 -61.171540 -6.460286
-2.046843 -58.810659 -4.113068
-3.817473 -62.947836 3.942010
-12.404174 -52.612071 13.524602
-0.757473 -60.945124 -3.884496
-3.433750 -60.583216 1.874617
-1.880752 -59.773339 -1.924643
-4.882057 -61.110882 5.980526
-0.807433 -60.379801 -3.210046
-4.649590 -57.012968 2.193385
-1.234723 -58.228032 -3.866298
-6.768379 -56.803635 8.213788
-22.290501 -58.323383 13.728344
-21.182487 -56.874866 13.480875
-4.923488 -62.876896 5.011596
-5.528611 -59.171362 4.183749
-3.625386 -60.562989 2.127887
-0.776204 -59.636169 -4.635207
-5.929049 -58.458718 5.943608
-1.034601 -59.883269 -3.138438
-2.802384 -60.585532 1.586198
-0.154532 -59.923511 -4.300765
-0.675647 -67.491811 -10.181509
-15.695180 -49.930976 14.106272
-1.982470 -61.423336 -6.702019
-1.483368 -59.884861 -5.224538
-1.293754 -60.454293 -4.708637
-3.718246 -63.112283 3.813023
-5.971505 -60.673202 7.031601
-1.144352 -59.048574 -4.446386
-4.686241 -58.419997 2.644337
3.046386 -75.741525 -13.407182
-1.015990 -63.254959 -7.365508
-1.621427 -60.801508 -6.062913
-1.442762 -60.018166 -5.273528
-7.443936 -57.063859 7.045799
-1.042087 -59.002643 -4.336084
-2.474383 -65.880089 5.542608
16.910689 -117.744717 -33.295461
-3.552171 -63.481696 3.380873
-5.422415 -61.463605 6.884684
-5.078236 -60.151246 8.118429
-24.716961 -59.291264 14.400807
-18.225676 -68.130962 -1.424376
-18.710131 -67.388109 -0.382861
-18.670247 -67.337850 0.681275
-19.552742 -66.851221 3.003938
-18.095465 -67.270600 0.116765
-17.840396 -71.185246 0.682309
-18.454579 -66.895762 1.354108
-23.371596 -59.802655 14.059571
-17.411858 -68.598672 0.966973
-23.031466 -59.160420 14.743088
-13.457938 -63.290188 -10.497232
-17.236740 -67.992071 2.067984
-22.362516 -58.634359 13.873439
-17.050777 -65.056039 3.680905
-21.053321 -58.911938 13.856218
-10.539544 -60.965398 -12.839209
-21.102860 -57.694527 14.451801
-21.967222 -54.161094 14.854283
-10.445643 -59.440983 -12.417903
-10.321460 -60.635179 -12.110659
-20.362730 -56.821785 14.887557
-15.797627 -63.025285 8.903065
-15.349944 -62.356449 10.781209
-12.794343 -63.889215 5.744999
-14.491887 -61.840055 8.782453
-10.223057 -64.399169 6.572783
-8.516286 -63.154260 7.381895
-14.435037 -55.179064 15.483185
-6.466602 -65.051479 5.789428
-14.321204 -55.119479 15.932716
-13.503047 -56.568791 16.186006
-5.767712 -64.654924 5.839617
-14.001466 -54.949007 16.566189
-13.788066 -54.808030 16.450353
-4.368079 -64.184391 5.203881
-5.884913 -62.136934 7.734595
-4.185214 -62.406719 4.246361
-4.887527 -63.740653 6.988761
-1.443150 -59.546631 -4.418646
-10.516723 -58.247590 14.792844
-3.749254 -60.795122 2.643679
-4.543117 -63.548436 7.012248
-1.209697 -60.824910 -2.818971
-2.322294 -62.795785 1.681974
-4.008490 -63.500335 6.408853
-10.271942 -57.848193 15.112615
-2.040946 -62.582032 1.832582
-2.944918 -63.779437 5.101297
-11.158779 -56.452877 16.023269
-9.779961 -57.808783 14.654296
0.171614 -61.995593 -2.414880
-9.735006 -56.768189 14.745275
-0.218653 -56.428146 16.286258
-24.706360 -58.181057 14.176978
-18.767845 -68.269159 -1.256436
-18.627869 -67.793197 -0.475523
-18.003927 -67.753513 0.066851
-18.328709 -67.369323 1.278919
-17.703439 -66.461073 1.198046
-23.139001 -57.247028 14.467550
-17.426688 -66.397537 2.234308
-22.438617 -59.178855 13.967126
-22.734139 -57.979680 14.568838
-16.991155 -65.562007 3.593144
-21.257791 -57.056012 13.625603
-21.198124 -56.405610 14.143761
-21.621423 -56.751228 15.387529
-10.358464 -60.910532 -12.631054
-9.844503 -59.881251 -11.367126
-9.013723 -60.182613 -11.489954
-15.758316 -63.095886 8.902961
-15.438796 -61.841120 10.763890
-13.009100 -64.682267 6.655946
-14.417662 -62.289425 8.770812
-14.046031 -56.294320 15.714580
-13.901671 -55.455365 16.656995
-1.930909 -58.826192 -5.103445
-3.817479 -63.194642 4.162957
-4.127832 -65.495926 6.967954
-2.181816 -58.217304 -3.987421
-5.114151 -63.404171 7.695383
-12.201479 -55.150449 15.723324
-2.987855 -62.668955 2.295360
-3.819783 -65.338752 6.939462
-1.793275 -58.178279 -4.171356
-2.075336 -59.238185 -2.475656
-3.153987 -65.277098 6.186736
-1.260223 -59.724999 -3.050210
-1.399931 -63.960374 1.485697
-10.961891 -56.552762 15.537013
-3.374423 -62.826009 5.052798
-1.197429 -57.983757 -4.234498
-0.728104 -59.492693 -3.764636
-0.331122 -59.595905 -4.174919
-9.006719 -58.517403 15.079496
-24.634051 -58.523036 13.875108
-23.262933 -58.556907 14.690662
-14.095448 -61.976356 -10.231686
-17.293251 -68.075357 2.055312
-22.753662 -57.101029 14.427882
-22.839034 -57.172173 14.676887
-21.227515 -57.643659 13.732944
-10.335174 -60.563287 -12.678550
-10.443320 -59.746163 -11.371569
-10.073187 -59.438704 -11.126096
-20.579440 -55.043720 14.626478
-17.637813 -62.573411 10.707128
-16.033261 -61.886595 8.867249
-14.153488 -63.795205 8.733008
-12.008655 -66.841773 5.631574
-5.757169 -67.006456 5.615424
-14.207700 -54.422488 16.445422
-4.964118 -63.077389 5.168342
-1.648075 -59.342485 -5.341134
-1.877574 -59.187594 -4.958871
-5.370086 -62.543858 7.015802
-10.867277 -57.438623 14.538202
-1.501131 -59.726843 -4.105958
-2.698677 -63.392764 2.174482
-3.815114 -62.901539 4.260696
-5.544808 -62.380406 7.726796
-1.496344 -58.718458 -4.468542
-1.014911 -60.186099 -3.185837
-2.989617 -60.697617 1.605541
0.320916 -55.938306 -9.956926
-2.185287 -56.400144 -3.888989
-0.307839 -60.451907 -4.059382
-4.823750 -61.353410 8.517737
-13.481078 -62.820966 -11.419363
-13.870470 -62.811283 -10.597726
-23.162002 -56.687028 14.347319
-21.299053 -57.899358 13.786710
-21.042367 -57.711251 14.405947
-10.506752 -60.071993 -12.465766
-20.446238 -56.709250 14.900198
-12.189657 -66.357345 5.649135
-4.367501 -59.942454 -7.709717
-10.694841 -57.968209 14.609588
-1.885237 -58.963151 -3.423705
-2.381714 -62.942461 1.637838
-3.349852 -57.015413 -1.386356
-2.948714 -65.413761 5.977973
1.334736 -62.523238 -6.096319
-4.213290 -58.033604 2.090318
-10.747363 -57.140011 15.686179
-0.654431 -59.193783 -4.086051
-4.710481 -61.718309 8.435616
-22.586340 -57.119017 13.667817
-21.319347 -58.161930 13.842765
-17.745065 -62.554401 10.738945
-14.240077 -55.698360 15.507016
-4.110360 -65.003355 4.956483
-2.791071 -57.354066 -3.721310
-4.351194 -64.882252 7.176073
-2.496421 -63.166091 1.876023
-3.216237 -64.770848 5.888997
-2.375161 -61.588458 1.479957
-1.153844 -58.253384 -3.888709
-14.134128 -55.986336 15.579791
-2.227918 -58.823118 -6.267669
-1.902210 -67.034186 5.515440
-0.432237 -61.860720 -7.392209
-1.103446 -60.699087 -4.616803
-2.358009 -63.419043 1.916958
-5.519932 -61.832403 7.132813
-2.188391 -59.267799 -1.612828
-1.445452 -63.515694 0.944143
-4.406410 -61.881027 5.590502
-4.727341 -61.023437 8.314177
-2.346934 -66.374094 3.201684
-3.790824 -65.494649 6.938066
-3.125996 -64.673984 8.305198
-25.856108 -58.831415 15.017158
-24.456797 -58.859520 14.145814
-17.688229 -71.032900 -1.972730
-18.117141 -70.457020 -0.893794
-18.472080 -67.348067 0.577123
-19.088587 -69.123765 2.743835
-17.647312 -69.400245 -0.247004
-17.921515 -69.366439 1.007270
-23.160020 -58.433439 13.668155
-12.475837 -68.107234 -12.541295
-17.155690 -68.687428 0.866744
-22.869288 -56.866110 14.161941
-12.687186 -65.832407 -11.479970
-22.517594 -56.279061 14.053736
-21.925205 -52.559710 13.480506
-21.117157 -55.412939 13.145877
-21.150926 -55.075936 13.836050
-21.770291 -52.369974 14.391698
-8.847591 -64.695804 -14.991864
-9.370438 -63.637848 -13.856253
-9.386863 -63.226727 -13.243902
-9.288439 -62.783009 -12.595220
-20.615968 -52.376822 13.871537
-20.629688 -51.742006 13.949930
-16.116911 -60.626399 8.716645
-16.106723 -57.696453 10.292638
-15.619873 -59.002851 9.982513
-13.017440 -62.330935 5.737022
-15.932381 -49.183797 14.042267
-8.235685 -60.166587 5.835486
-16.092479 -47.617529 14.114555
-6.920780 -61.611714 5.862853
-16.127570 -47.094927 14.440295
-15.873202 -47.170202 14.409815
-6.343735 -59.460458 5.312160
-5.242618 -59.999915 4.352112
-6.333592 -60.227810 6.934590
-15.776489 -46.307151 15.056421
-12.546330 -52.115562 13.534837
-3.738486 -60.822262 2.637825
-6.791784 -58.222583 6.931282
-2.015215 -58.516329 -3.128328
-1.988210 -59.350282 -2.512818
-3.239710 -60.882920 1.872981
0.721410 -57.327143 -10.113548
-5.451075 -60.184008 6.399593
-12.874394 -50.224492 13.478047
-15.991944 -44.833871 15.246516
-0.220701 -55.198621 -9.538997
-2.827087 -60.982241 1.987878
-4.257579 -60.906861 5.173397
-13.139706 -49.978449 14.063391
-13.747598 -48.636277 14.108915
-13.954877 -48.432866 14.590318
-3.633272 -56.447665 9.471270
-3.950476 -50.509897 14.769748
-24.437190 -58.933501 13.784415
-24.484258 -59.411607 14.223453
-18.028546 -71.487649 -1.072411
-17.702777 -68.648771 -0.144602
-18.080178 -67.874022 1.128209
-17.352323 -67.223650 1.036757
-22.282756 -57.420306 13.535677
-21.313606 -52.907481 13.365798
-21.627321 -53.564659 14.577002
-9.691315 -62.542920 -13.372614
-8.511000 -63.244594 -12.781464
-16.351886 -56.445847 10.201226
-15.162340 -58.376058 8.525188
-10.922226 -61.654265 6.526860
-15.797628 -49.381646 14.061785
-7.280341 -62.594751 5.696874
-15.666634 -48.857458 14.576174
-16.090717 -47.337066 14.467757
-5.357546 -61.854584 5.139949
-5.157771 -60.095207 4.309440
-6.119144 -60.672499 6.900236
-2.246453 -58.100045 -3.958559
-14.404164 -48.137078 14.000289
-2.535967 -63.370279 2.257919
-5.848828 -60.523224 6.875025
-2.478334 -58.478648 -2.318506
-3.022346 -61.366861 1.789480
-5.141955 -60.723082 6.196928
-2.728664 -61.238999 1.763654
-16.069278 -44.613261 15.186180
-4.129710 -61.178248 5.095153
-1.231873 -57.947370 -4.224124
-0.946186 -59.122616 -3.676332
-0.485115 -59.349405 -4.113296
-6.830495 -56.756458 8.322948
-24.364863 -58.825219 13.764256
-17.280070 -71.902667 -0.724137
-12.677675 -67.086770 -12.171010
-17.359989 -67.454606 0.992080
-16.877321 -69.528037 1.842674
-22.654553 -54.980473 13.879902
-21.245254 -55.288971 13.214823
-9.390561 -63.058205 -13.805592
-8.920027 -64.680278 -13.907653
-8.926308 -64.029411 -13.177221
-9.288081 -61.386101 -11.958954
-20.454827 -54.323503 14.400265
-18.216230 -57.442000 10.163956
-16.327519 -59.621644 8.690413
-14.393447 -61.836908 8.604030
-13.044257 -62.191032 5.661365
-15.845408 -49.356989 14.048539
-6.733392 -64.266621 5.642586
-2.140994 -59.114688 -5.766353
-6.011302 -60.541961 5.226357
-6.692991 -59.332543 6.962563
-12.773667 -51.637766 13.360475
-4.808095 -60.661101 4.357384
-1.391795 -60.595786 -2.866008
-1.974228 -58.416668 -2.797164
-3.558847 -59.536651 1.728493
-1.629015 -57.419551 -4.151214
-1.160824 -58.922706 -3.694308
-6.480148 -57.592038 8.329936
-12.055351 -50.395204 13.370877
-17.669284 -69.959530 -0.456768
-12.380333 -66.744921 -13.000025
-23.040661 -54.442625 13.775716
-22.241435 -58.059197 13.636080
-16.722101 -67.911906 2.385758
-21.336050 -51.965337 13.189807
-18.072013 -58.782268 10.212156
-20.583840 -53.091221 14.066262
-20.187562 -51.527551 14.177835
-12.782117 -63.505442 5.649639
-5.921930 -61.131709 -9.843402
-15.976155 -48.948727 13.909253
-15.524169 -49.830105 14.680727
-3.087856 -56.981878 -3.656029
-3.997851 -62.693457 3.957262
-12.617234 -52.117259 13.426340
-4.077693 -60.345638 2.415120
-1.983012 -58.786585 -3.383281
-3.508397 -60.573806 1.876435
-1.452239 -60.491806 -2.036526
-4.802424 -61.198875 6.005039
-0.506673 -61.044659 -3.351297
-4.484817 -57.533232 2.135240
-12.868082 -50.821793 14.215937
-6.958236 -56.506797 8.199306
-22.490087 -55.110237 13.180772
-21.256418 -55.716614 13.305835
-18.365578 -56.876596 10.139215
-15.883110 -49.175583 13.955530
-3.360843 -58.543266 -5.706147
-6.207090 -59.963879 5.096737
-4.812637 -60.657060 4.136264
-7.171195 -58.183614 7.042534
-3.118206 -61.789215 2.011153
-5.586213 -59.384004 5.935632
-2.236167 -61.889195 1.445023
-0.789605 -59.025749 -4.087571
-17.867755 -60.196987 10.265625
-4.914390 -59.357974 -7.556330
-0.957042 -61.221081 -6.989201
-1.903942 -59.144662 -4.351338
-6.580136 -59.358563 7.010642
-1.901266 -57.644771 -4.070404
-2.849840 -64.916019 5.546154
1.019877 -64.581308 -8.223001
-2.747477 -57.688818 -4.643160
-6.943617 -58.407752 7.068015
-2.373384 -56.724831 -3.757831
-2.255651 -59.155061 -1.592320
-2.100753 -62.190931 1.094978
-5.674163 -59.010018 5.634620
-6.441303 -57.182541 8.138937
2.564738 -67.523434 -9.324782
-3.911310 -62.822562 3.422664
-5.815922 -60.677313 6.874559
-5.470389 -59.403207 8.085192
-24.046850 -29.721037 8.842692
-24.027525 -29.659967 8.935620
-22.482214 -30.624909 4.278111
-22.549698 -30.732388 4.523874
-22.726851 -30.768206 5.462979
-22.392341 -30.660382 4.669708
-23.662741 -29.728793 8.804712
-22.262459 -30.587274 4.953341
-23.573741 -29.525013 9.008321
-21.391780 -29.160766 1.860779
-22.246692 -30.394184 5.247127
-23.389637 -29.644033 8.782860
-23.467223 -29.497370 8.999454
-22.041239 -30.500667 5.638835
-23.228308 -29.408033 9.021271
-23.029807 -29.654283 8.752959
-20.755533 -28.245990 1.363857
-23.042073 -29.435781 8.968663
-23.198669 -29.179971 9.306123
-20.701481 -28.160840 1.285233
-20.630133 -28.143502 1.345328
-20.578546 -28.318952 1.604710
-20.437705 -28.232052 1.616009
-22.811545 -29.193309 9.178999
-21.693030 -30.022288 7.143693
-21.593585 -29.773462 7.677352
-21.522491 -29.782897 7.539227
-20.959721 -29.952931 6.224693
-21.047650 -30.019635 6.504594
-21.308932 -29.874698 7.111453
-20.397322 -29.751199 6.443773
-21.136893 -28.892954 9.271062
-19.568224 -29.493496 6.228860
-21.053213 -28.852862 9.435005
-21.014186 -28.820764 9.355167
-19.399456 -29.416429 6.234419
-21.076566 -28.678920 9.560404
-20.994844 -28.672507 9.536849
-18.374390 -27.983874 3.210349
-19.039733 -29.270262 6.068172
-18.856250 -29.121098 5.800857
-19.143202 -29.288026 6.533970
-20.950734 -28.463302 9.810949
-20.262891 -28.993269 8.847831
-18.695828 -29.112947 5.642781
-18.812845 -29.092701 5.824238
-19.038067 -29.246628 6.544041
-18.214128 -28.147691 3.788714
-18.133205 -28.003066 3.516986
-18.911381 -29.202824 6.382406
-20.200664 -28.879378 8.937305
-20.915696 -28.341324 10.024083
-18.700761 -29.123702 6.039266
-18.054856 -27.936466 3.636690
-17.984701 -28.138649 3.682086
-18.892655 -29.202905 6.967724
-19.990971 -28.858423 8.999463
-24.040977 -29.648355 8.925884
-22.592844 -30.754250 4.312160
-22.540468 -30.727835 4.513708
-22.411423 -30.575602 4.679536
-21.462485 -29.162694 1.805940
-22.265806 -30.580442 4.955632
-21.389428 -28.969315 1.620628
-22.192295 -30.537806 5.251123
-23.403318 -29.649151 8.788171
-23.232116 -29.468437 9.003050
-23.105432 -29.459327 8.957760
-23.187772 -29.231003 9.285141
-20.652884 -28.308334 1.470498
-20.437747 -28.277029 1.621803
-22.175207 -29.946473 7.700381
-21.685812 -30.015801 7.141251
-21.598198 -29.757182 7.682896
-21.042404 -30.049536 6.482167
-21.314111 -29.879952 7.101668
-20.382423 -29.773062 6.440105
-20.988845 -28.847566 9.351843
-21.072401 -28.752598 9.452309
-19.028194 -29.309889 6.035971
-18.835523 -29.141750 5.789350
-19.181222 -29.280227 6.721967
-20.549769 -28.758548 9.285764
-18.604091 -29.007101 5.291013
-19.028593 -29.287387 6.519781
-18.495553 -28.943470 5.125107
-18.876356 -29.233891 6.325122
-18.159829 -28.200991 3.870073
-18.415252 -28.904131 5.119077
-20.920974 -28.330817 10.025749
-18.715791 -29.084817 6.019897
-18.039492 -27.915833 3.509334
-18.032857 -27.948122 3.624640
-19.899976 -28.943076 8.891924
-19.995009 -28.845544 9.003603
-22.624869 -30.735996 4.311855
-24.001540 -29.730780 8.828721
-22.562168 -30.703976 4.553209
-22.406669 -30.625101 4.629056
-22.445346 -30.645140 4.973795
-23.602162 -29.493373 9.008860
-23.494255 -29.455720 9.016681
-23.521371 -29.412265 9.083305
-22.104502 -30.559198 5.336168
-23.117330 -29.427722 8.992386
-20.655691 -28.296445 1.484473
-22.846223 -29.257868 9.154934
-22.164140 -30.009723 7.684623
-21.705761 -29.991726 7.149393
-21.314120 -29.950751 7.072888
-19.550125 -29.549872 6.190289
-21.093550 -28.664007 9.566043
-19.082892 -29.248319 6.052753
-18.320893 -27.986098 3.289947
-18.381639 -27.980503 3.377060
-18.273918 -28.076528 3.519188
-19.055937 -29.458555 6.553702
-20.276610 -28.979561 8.824423
-18.256653 -28.096076 3.618099
-18.623914 -29.016154 5.272918
-18.813322 -29.128593 5.809524
-19.195842 -29.250630 6.737508
-18.258998 -28.333467 3.936693
-18.098314 -27.860600 3.506804
-18.105479 -28.029395 3.688943
-18.894834 -29.206274 6.965094
-22.418802 -30.646316 4.636791
-21.432615 -28.987978 1.631381
-23.602443 -29.494511 9.027597
-23.399424 -29.637407 8.781068
-22.106657 -30.536606 5.349551
-23.255512 -29.438772 8.937564
-23.086728 -29.568852 8.774071
-23.005141 -29.451072 8.963142
-20.691760 -28.175830 1.627421
-20.956393 -30.028648 6.202462
-19.037344 -28.145773 2.658909
-21.140617 -28.905349 9.243032
-18.767074 -28.022306 3.030809
-20.279462 -28.984271 8.813754
-18.203365 -28.017372 3.431506
-18.600630 -29.047974 5.262311
-19.209139 -29.180172 6.700368
-18.221364 -28.189558 3.725322
-18.548954 -28.883462 5.133465
-17.996124 -27.944364 3.337810
-18.156079 -28.191160 3.867029
-18.438905 -28.828255 5.123040
-20.281332 -28.853042 9.148020
-23.101653 -29.538629 8.772306
-18.763580 -28.042478 3.010172
-18.854558 -29.107955 5.739083
-19.093128 -29.341509 6.585219
-18.567995 -28.950946 5.197091
-18.174544 -27.942062 3.508273
-18.829479 -29.249194 6.248134
-18.393010 -28.851033 5.056803
-19.964314 -28.872778 8.908129
-21.123797 -28.948106 9.245071
-18.372135 -27.982133 3.362007
-19.109192 -29.255470 6.562613
-18.194452 -27.928494 3.522372
-18.625165 -28.857879 5.292681
-17.989355 -28.005975 3.549408
-18.283878 -28.137072 3.533852
-19.089916 -29.280706 6.584402
-18.200740 -27.900031 3.550429
-18.280012 -28.375153 4.190839
-18.828708 -29.191133 6.157198
-18.851497 -29.154752 6.909708
-18.819092 -29.140303 5.583703
-19.059453 -29.230965 6.517250
-22.120134 -33.242585 2.973809
-23.832984 -32.182570 9.459941
-22.066726 -33.309535 4.192911
-22.061197 -33.301912 4.544563
-21.896160 -33.218245 4.364692
-21.928070 -33.411055 4.667697
-21.741078 -33.130412 4.702797
-23.284521 -31.998458 9.547912
-20.736430 -31.291046 1.088830
-23.063409 -32.125292 9.276122
-21.458512 -33.035100 5.522761
-22.630519 -32.121447 9.241068
-22.644566 -31.862249 9.500255
-19.910118 -30.096909 0.424812
-19.826646 -30.074843 0.496577
-19.845826 -30.281373 0.663145
-19.752247 -30.334524 0.778733
-22.388725 -31.672277 9.684800
-19.578725 -30.242221 0.788881
-22.360641 -31.619937 9.766360
-21.039117 -32.472719 7.318575
-20.919053 -32.177245 7.956357
-20.821018 -32.252177 7.798169
-20.154435 -32.424517 6.228887
-20.567433 -32.350948 7.286957
-19.485787 -32.164608 6.495759
-18.531348 -31.755731 6.246821
-20.364153 -31.048969 10.011782
-18.305431 -31.730682 6.254610
-20.281807 -30.923301 10.226194
-20.197350 -30.914418 10.192322
-17.912164 -31.471642 6.061116
-18.113399 -31.531658 6.871365
-17.665971 -31.360749 5.742524
-18.002182 -31.569713 6.613895
-20.132030 -30.657591 10.526671
-17.012023 -29.995155 3.071272
-19.338492 -31.201464 9.359704
-17.439887 -31.087185 5.199709
-17.876969 -31.519058 6.626380
-16.958895 -30.108624 3.375145
-16.996970 -30.290081 3.590308
-19.245170 -31.122317 9.479454
-17.498403 -31.364130 6.021783
-19.452295 -30.963351 9.877746
-16.737754 -29.919516 3.182224
-16.784582 -29.966810 3.276225
-17.722969 -31.420294 7.130691
-22.128982 -33.256052 2.964489
-22.135537 -33.362083 3.933734
-21.723682 -33.156434 4.705710
-21.655437 -33.105513 5.053714
-23.077954 -32.159290 9.287283
-23.190176 -31.971977 9.558286
-22.647074 -31.819667 9.470468
-22.816922 -31.653073 9.886990
-19.876572 -30.286154 0.536202
-19.834287 -30.315591 0.623538
-19.749412 -30.340031 0.732823
-19.595941 -30.243304 0.817297
-21.025395 -32.492320 7.317557
-20.919448 -32.183930 7.965807
-20.171115 -32.400331 6.224286
-20.583454 -32.313491 7.272741
-19.478524 -32.127774 6.493600
-20.334137 -31.167907 9.857168
-20.343237 -31.131762 9.985381
-18.302636 -31.729768 6.247205
-20.295090 -30.925601 10.211451
-17.885052 -31.550163 6.021991
-17.660062 -31.342546 5.730716
-17.996410 -31.568122 6.599201
-17.044380 -29.952076 3.112910
-19.668361 -30.958237 9.887818
-17.392203 -31.171913 5.142659
-17.883452 -31.525318 6.596820
-16.929703 -29.879528 3.074898
-17.259694 -31.094950 4.947682
-17.705665 -31.455707 6.366838
-17.212140 -30.959814 4.948873
-17.480361 -31.356905 6.003736
-16.742303 -29.855707 3.041650
-16.801008 -29.963803 3.279988
-16.734475 -29.893193 3.178217
-17.729593 -31.403783 7.138874
-22.154800 -33.364919 3.932100
-22.084888 -33.248515 4.231330
-21.884555 -33.269288 4.308046
-23.377466 -31.967778 9.567008
-21.736269 -33.184409 4.696093
-23.315837 -32.027102 9.562001
-21.658299 -33.146663 5.041748
-23.186751 -31.946757 9.565478
-22.665313 -32.040812 9.265715
-19.774964 -30.313126 0.766605
-21.601904 -32.463114 7.960117
-21.045493 -32.463801 7.328299
-20.570541 -32.455240 7.241131
-18.484992 -30.010003 1.714374
-18.021577 -29.997313 2.077796
-20.356778 -31.176171 9.855433
-18.543129 -31.802104 6.193401
-20.224168 -31.069957 9.964624
-17.928273 -31.529189 6.040275
-17.071654 -29.935682 2.782259
-17.167062 -29.904206 2.890349
-17.040998 -30.004824 3.061644
-19.330584 -31.257757 9.346085
-17.439684 -31.131053 5.125523
-17.298765 -31.052353 4.944853
-16.838182 -29.743671 3.050247
-16.771379 -29.880894 3.191229
-17.748516 -31.372010 7.125089
-18.937377 -31.095621 9.409161
-21.934426 -33.244494 4.317540
-20.769656 -31.075157 0.824973
-20.798078 -31.317489 0.992618
-23.070472 -32.189345 9.286952
-22.899410 -31.904622 9.468634
-22.190568 -31.517759 9.854029
-20.155555 -32.416316 6.209164
-18.008403 -30.129209 2.001332
-17.203261 -29.820412 2.579368
-19.346291 -31.226386 9.325869
-17.381558 -31.233858 5.107036
-16.948628 -30.194222 3.292498
-17.324143 -31.031939 4.955565
-16.989550 -30.358269 3.798971
-17.713654 -31.411250 6.294403
-17.195198 -30.963219 4.944403
-19.374006 -31.017653 9.710157
-19.001857 -31.070806 9.412747
-23.121105 -32.102857 9.299280
-17.182687 -29.862722 2.536615
-17.906233 -31.539888 5.988955
-18.010048 -31.558097 6.660922
-17.368467 -31.065018 5.035076
-16.861624 -29.960522 3.020942
-17.666963 -31.434843 6.275669
-16.803930 -30.281692 3.432467
-20.355820 -31.181894 9.831638
-17.600769 -31.445862 5.614331
-17.946618 -31.566773 6.648949
-16.885087 -29.944550 3.037352
-17.938363 -31.561208 6.674431
-17.007712 -30.375632 3.857343
-17.186326 -30.903262 4.776765
-17.632626 -31.444306 6.167758
-17.656445 -31.403635 7.064100
-17.644010 -31.336240 5.488171
-17.695146 -31.322362 7.008620
-24.118601 -31.377686 9.615763
-21.915112 -33.374860 2.921473
-21.800739 -33.295394 3.863761
-21.900608 -33.252900 4.531891
-22.127899 -33.228321 5.298573
-21.827746 -33.170720 4.751799
-21.586286 -33.130023 4.689510
-23.178142 -31.357573 9.408274
-20.471943 -31.732033 0.914592
-21.506799 -33.029933 5.041789
-22.572531 -31.434234 9.113188
-22.594818 -31.146900 9.354152
-19.588806 -30.775581 0.313466
-22.368163 -30.923399 9.524020
-22.339665 -30.910920 9.610075
-21.014347 -32.094754 7.298845
-20.930509 -31.714120 7.914343
-20.844826 -31.741479 7.757217
-20.145016 -32.124568 6.235842
-20.258710 -32.160087 6.562779
-20.584264 -31.907413 7.266397
-19.502842 -31.836724 6.505698
-20.524585 -30.415852 9.698988
-18.575192 -31.561394 6.252261
-20.541684 -30.270415 9.820168
-20.396833 -30.317678 9.790648
-18.385327 -31.468533 6.260157
-20.480132 -30.120543 10.013204
-20.389616 -30.118429 9.987777
-17.043931 -30.073367 2.652376
-17.964678 -31.326653 6.065692
-18.215373 -31.273774 6.863275
-17.734425 -31.198289 5.750486
-18.102153 -31.274519 6.615880
-20.363105 -29.831320 10.282536
-16.883121 -30.217337 3.018822
-19.536875 -30.589619 9.234638
-17.436753 -31.038510 5.211451
-18.014730 -31.231578 6.616415
-17.843292 -31.203464 6.433782
-17.216704 -30.946950 5.013213
-17.576446 -31.165453 6.031643
-16.616412 -30.067827 2.990331
-16.631400 -30.217082 3.222858
-16.584408 -30.628161 3.724820
-17.850429 -31.126826 7.117928
-21.923659 -33.391107 2.910886
-23.685103 -31.573162 9.318308
-21.734254 -33.155333 4.358611
-23.202486 -31.265839 9.428298
-21.521769 -33.005909 5.051189
-22.822506 -31.190062 9.382235
-22.659901 -31.224642 9.350475
-22.594089 -31.134411 9.331570
-22.762644 -30.905677 9.713500
-19.550554 -30.787492 0.415346
-19.439694 -30.843057 0.518183
-19.342767 -30.691578 0.625878
-21.009087 -32.070999 7.295806
-20.153358 -32.131847 6.230839
-20.592459 -31.902548 7.254214
-19.471638 -31.881267 6.504049
-18.545969 -31.589822 6.216374
-20.515876 -30.371337 9.800567
-18.371496 -31.496149 6.252551
-20.486481 -30.145390 10.005203
-17.954889 -31.362651 6.028125
-16.949406 -30.155262 2.754792
-17.715814 -31.210281 5.737329
-18.081309 -31.301572 6.602927
-18.180192 -31.226993 6.828158
-19.888680 -30.243264 9.712609
-17.392284 -31.123441 5.153573
-16.778810 -30.160082 3.005272
-16.920620 -30.466984 3.558134
-17.308289 -30.997275 4.957884
-17.804988 -31.233503 6.366873
-16.801407 -30.321142 3.444051
-19.584023 -30.404284 9.563876
-16.648318 -30.213786 3.226801
-19.144442 -30.514299 9.281040
-16.577377 -29.782007 9.539036
-21.969066 -33.415501 3.902680
-23.651105 -31.681177 9.202902
-21.727072 -33.219987 4.297279
-21.596080 -33.079088 4.693740
-23.195381 -31.310481 9.413659
-23.091271 -31.252229 9.415743
-23.122521 -31.204942 9.492678
-19.554532 -30.771663 0.433284
-21.031868 -32.043964 7.305047
-20.590428 -31.989072 7.220452
-18.556880 -31.617892 6.206965
-18.017887 -31.292002 6.047537
-19.554072 -30.568716 9.206519
-17.692642 -31.190385 5.761818
-18.197982 -31.191052 6.846296
-16.837639 -30.350749 3.287004
-17.329489 -30.991107 4.951434
-17.155407 -31.029737 4.877826
-16.625615 -30.158016 3.124196
-17.876409 -31.106179 7.109196
-16.589835 -29.786902 9.533501
-21.766493 -33.266211 4.297200
-20.482772 -31.597467 0.607040
-20.579615 -31.681603 0.841722
-22.978847 -31.498535 9.151768
-21.408103 -32.987722 5.174948
-22.823958 -31.234256 9.330960
-22.631195 -31.399763 9.148112
-22.576191 -31.131296 9.332821
-22.379979 -30.989272 9.550893
-20.135586 -32.159334 6.215611
-16.949162 -30.215477 3.063353
-19.551056 -30.591969 9.197972
-16.813143 -30.199842 2.891262
-17.451670 -31.078985 5.121613
-18.202463 -31.136439 6.803909
-16.846935 -30.324796 3.271026
-17.325536 -31.029512 4.956244
-17.774334 -31.208225 6.305093
-19.590693 -30.371679 9.559207
-17.939173 -30.970472 7.075972
-21.407144 -32.933772 5.375869
-20.528545 -30.410614 9.653509
-17.009089 -30.166332 2.449861
-17.987737 -31.319837 5.996770
-16.952187 -30.208658 3.067334
-17.671513 -31.237193 5.687148
-17.397159 -31.003885 5.041407
-16.756852 -30.154781 2.972668
-17.778100 -31.189372 6.277234
-17.185411 -30.910344 4.874318
-20.525657 -30.415049 9.654515
-16.942590 -30.255395 2.357587
-16.974788 -30.222309 2.790435
-16.954585 -30.238875 3.000801
-16.780661 -30.138608 2.989333
-16.546451 -30.220011 3.025165
-17.378023 -31.053809 5.055353
-16.906277 -30.578111 3.820186
-17.161329 -30.963664 4.769803
-17.677539 -31.287689 6.178129
-17.787419 -31.137483 7.049048
-17.836458 -31.030938 6.993719
-23.729402 -31.189068 9.129720
-23.707881 -31.118336 9.234760
-21.979532 -32.120918 4.035177
-22.061228 -32.150234 4.648393
-22.263243 -32.213529 5.358793
-23.381721 -31.103509 9.105230
-21.942657 -32.213783 4.768044
-21.986664 -32.094782 4.851199
-23.311790 -31.090840 9.072164
-20.896509 -30.355793 1.341506
-21.755923 -32.050850 4.792913
-23.199581 -30.904498 9.316472
-20.808145 -30.342056 1.410537
-21.670320 -31.993625 5.118752
-23.004356 -31.034711 9.062555
-21.510888 -31.857874 5.570128
-22.827735 -30.723402 9.325308
-22.594914 -30.983641 9.030740
-22.621313 -30.735634 9.266601
-22.795736 -30.461115 9.644007
-19.998357 -29.344021 1.038364
-19.917849 -29.364501 1.158521
-22.376078 -30.538986 9.442483
-21.124711 -31.345652 7.249870
-20.303891 -31.298853 6.239150
-20.435378 -31.233824 6.548591
-20.490018 -29.827071 9.761098
-18.623603 -30.536097 6.281029
-20.478783 -29.729772 9.930490
-20.389595 -29.719631 9.904605
-17.563982 -28.872760 2.984218
-18.292711 -30.283391 6.097431
-18.354064 -30.369992 6.615302
-19.597131 -30.039833 9.146955
-17.800559 -29.989766 5.306431
-18.256588 -30.322244 6.622014
-17.374146 -29.092957 3.606038
-18.102187 -30.273098 6.450565
-19.520992 -29.900349 9.250225
-17.886729 -30.191969 6.069261
-19.726864 -29.748503 9.609588
-17.202911 -28.829494 3.452656
-17.189222 -28.974371 3.515962
-18.089248 -30.264014 7.095257
-19.246791 -29.888969 9.197943
-19.329740 -29.809631 9.301202
-16.794605 -29.052507 9.456990
-22.130712 -32.188662 4.080245
-22.074102 -32.151922 4.306118
-21.901838 -32.067019 4.485060
-21.970536 -32.086294 4.843131
-21.754912 -31.967480 4.807010
-23.020669 -31.022076 9.064346
-23.111531 -30.850349 9.322434
-22.830811 -30.799715 9.305496
-22.626221 -30.897253 9.051542
-22.625963 -30.672031 9.234468
-22.770006 -30.519655 9.626783
-19.884756 -29.414331 1.098419
-19.785206 -29.275481 1.197047
-21.115216 -31.347529 7.248492
-20.428833 -31.269140 6.523548
-20.709997 -31.165691 7.209466
-18.781747 -30.687131 6.232486
-20.449628 -29.835766 9.824529
-20.495883 -29.713235 9.911546
-18.266056 -30.343238 6.063254
-18.041408 -30.241051 5.784995
-18.322665 -30.423101 6.603369
-17.422067 -28.971705 3.359893
-19.928448 -29.729096 9.613953
-17.783788 -30.016622 5.256763
-18.238865 -30.383519 6.595169
-17.717833 -29.873616 5.078383
-18.073499 -30.323246 6.382495
-19.639693 -29.854184 9.465526
-19.717825 -29.799701 9.595471
-17.899392 -30.159016 6.048477
-17.184137 -28.811262 3.312887
-17.203564 -28.972873 3.518738
-17.180402 -28.840159 3.440803
-18.123992 -30.168988 7.101150
-19.230956 -29.901033 9.184091
-16.762579 -29.082981 9.455786
-23.689033 -31.219717 9.114269
-22.074119 -32.171048 4.346169
-21.903132 -32.069562 4.435216
-20.809258 -30.112677 1.143182
-23.225522 -30.895589 9.324359
-22.625632 -30.871391 9.049019
-22.772310 -30.543936 9.620830
-21.628377 -31.331868 7.850741
-21.146729 -31.272390 7.254498
-20.719588 -31.199965 7.174623
-20.532085 -29.956159 9.592095
-18.810489 -30.665174 6.224066
-20.429055 -29.850591 9.685471
-17.584831 -28.892105 2.926998
-18.312064 -30.308720 6.080296
-17.420956 -29.007959 3.315714
-19.592507 -30.082904 9.132054
-17.401980 -29.058685 3.414479
-17.784620 -30.061379 5.234304
-18.021153 -30.172455 5.816569
-18.421202 -30.288969 6.840256
-17.365716 -29.143756 3.559311
-17.722114 -29.900060 5.068688
-19.642392 -29.857488 9.464149
-17.234242 -28.768068 3.305621
-17.171805 -28.887028 3.439802
-18.126153 -30.219430 7.085998
-19.242508 -29.889061 9.186738
-16.765446 -29.085475 9.454433
-21.949086 -32.048386 4.443488
-23.224621 -30.861676 9.340130
-22.610196 -30.646923 9.231384
-22.387054 -30.544785 9.459656
-20.302578 -31.300189 6.220193
-17.800170 -29.003356 2.861602
-17.528304 -28.963939 2.824741
-17.502277 -28.944294 3.375018
-17.987412 -30.304285 5.719017
-19.601141 -30.071546 9.116874
-17.801659 -30.058925 5.219494
-17.338845 -29.168102 3.536024
-17.746686 -29.879006 5.079467
-18.042961 -30.301867 6.324207
-17.272799 -29.160734 3.694803
-18.162798 -30.140723 7.056166
-20.516239 -30.001722 9.582244
-17.507675 -29.005724 2.783455
-18.283119 -30.339610 6.033175
-17.997562 -30.225402 5.745786
-17.777124 -29.930826 5.150511
-17.289109 -28.886280 3.301716
-18.068424 -30.234429 6.298272
-17.284766 -29.161226 3.679398
-17.191738 -28.854905 3.424194
-19.268527 -29.915696 9.221029
-20.544556 -29.968752 9.565324
-17.497549 -28.969436 3.125081
-18.305940 -30.400649 6.643545
-17.900651 -30.414724 6.199941
-17.718527 -30.061448 5.154944
-18.340884 -30.294307 6.665524
-17.626850 -29.747553 4.915571
-18.092777 -30.133086 7.024707
-18.003610 -30.240285 5.566093
-18.075047 -30.178394 6.978558
-24.213944 -30.484520 9.421298
-22.336061 -30.703929 3.469832
-23.780781 -30.611987 9.129818
-22.193174 -30.858469 4.224094
-22.266858 -30.884664 4.786787
-22.436060 -31.108447 5.427986
-22.115250 -30.866232 4.626592
-22.182382 -30.933880 4.962271
-21.287915 -28.785313 1.914379
-21.201413 -28.580861 1.720176
-23.269061 -30.432228 9.211791
-23.069273 -30.495602 8.959085
-21.706268 -30.811736 5.619052
-22.903404 -30.222121 9.210876
-22.676509 -30.406046 8.916403
-22.695329 -30.203928 9.150065
-22.841561 -30.064315 9.546806
-20.396976 -27.889578 1.754753
-22.408625 -30.067092 9.415379
-21.274938 -30.552502 7.195309
-21.050199 -30.396868 7.630438
-20.533416 -30.302171 6.241533
-20.868866 -30.350922 7.167131
-19.936316 -30.071257 6.480937
-19.079413 -29.729333 6.271802
-20.590877 -29.449886 9.637539
-18.890483 -29.633658 6.286394
-20.506546 -29.356388 9.837645
-18.543573 -29.442861 6.116555
-18.367300 -29.252548 5.844311
-18.612116 -29.507650 6.602954
-20.374778 -29.079123 10.102057
-19.677445 -29.523629 9.050646
-18.246450 -29.115989 5.695890
-18.517915 -29.460649 6.609956
-18.087071 -28.861958 5.185509
-17.847876 -27.705459 3.608231
-18.396333 -29.390822 6.444529
-19.611577 -29.393337 9.147809
-20.322605 -28.976608 10.343436
-18.193745 -29.271174 6.092394
-17.702034 -27.714532 3.711497
-17.723595 -27.789435 3.783668
-18.326805 -29.458412 7.060246
-19.305757 -29.432656 9.115443
-17.490312 -29.055685 7.411402
-22.343250 -30.717497 3.461011
-23.788781 -30.623115 9.126209
-22.274744 -30.947684 4.464867
-22.117235 -30.803525 4.636773
-22.163399 -30.955167 4.951795
-23.291860 -30.346444 9.230553
-21.891190 -30.827161 5.215729
-23.084986 -30.483348 8.960826
-22.906456 -30.295677 9.191744
-22.695442 -30.160643 9.123720
-22.831826 -30.071008 9.514011
-20.367829 -27.933382 1.701797
-21.277225 -30.497225 7.191026
-21.144916 -30.289028 7.774822
-20.526826 -30.366167 6.236134
-20.864888 -30.398827 7.158740
-19.064875 -29.722991 6.240461
-20.570765 -29.527909 9.613990
-18.548080 -29.445090 6.083907
-18.361594 -29.236934 5.833790
-18.569821 -29.587693 6.591956
-18.690591 -29.441422 6.791584
-19.969863 -29.311500 9.522647
-18.132591 -29.039178 5.336990
-18.524110 -29.465248 6.583893
-17.880361 -27.695058 3.612905
-18.082325 -28.879324 5.173997
-18.342810 -29.462214 6.384962
-17.832177 -27.974393 3.941146
-20.340146 -28.942891 10.336033
-17.735597 -27.789481 3.785407
-18.340783 -29.466162 7.063887
-19.304726 -29.405225 9.094031
-23.747699 -30.675482 9.013610
-22.114968 -30.835643 4.587305
-21.277927 -28.792784 1.910921
-21.978681 -30.794108 4.916809
-21.184574 -28.632682 1.714096
-21.886795 -30.905882 5.200596
-23.174622 -30.353183 9.224369
-21.865715 -30.714789 5.306754
-22.834066 -30.094555 9.508245
-21.751453 -30.604186 7.770197
-21.282128 -30.556649 7.203846
-20.886607 -30.378140 7.122919
-19.080513 -29.733812 6.231914
-20.464250 -29.460171 9.594346
-20.532710 -29.310103 9.835081
-18.612140 -29.363977 6.101003
-18.071804 -27.700936 3.465743
-17.934252 -27.833796 3.596509
-18.607496 -29.511467 6.615087
-18.349534 -29.200560 5.857446
-18.706951 -29.408412 6.807894
-17.805999 -27.975684 3.935241
-17.957146 -28.883416 5.108276
-17.800935 -27.582061 3.593504
-17.721311 -27.681397 3.720265
-22.150552 -30.878747 4.587164
-23.091497 -30.496622 8.953736
-21.761288 -30.897140 5.316990
-21.737555 -30.851557 5.532010
-22.905466 -30.307610 9.140006
-21.775195 -30.647622 7.747840
-18.142056 -27.601373 3.206614
-18.050942 -27.721510 3.663036
-18.346025 -29.263879 5.769175
-18.201475 -28.970825 5.312282
-17.915185 -28.126013 4.217566
-18.050446 -28.716777 5.178189
-17.725764 -27.696179 3.703926
-23.114441 -30.457343 8.979195
-18.584392 -29.397684 6.057446
-18.045881 -27.711479 3.670664
-18.323608 -29.259192 5.790503
-18.151669 -28.906198 5.243493
-18.358918 -29.328654 6.305967
-17.726434 -28.120987 3.896385
-17.982135 -28.783457 5.106232
-20.595118 -29.530187 9.464980
-18.555447 -29.542477 6.632427
-18.217262 -29.464401 6.215516
-18.147698 -28.919018 5.257460
-18.570709 -29.503394 6.652127
-17.870634 -28.256054 4.245670
-17.986147 -28.780121 5.020688
-18.251023 -29.459880 6.218566
-18.308953 -29.382580 6.996343
-18.326895 -29.287570 5.622620
-18.311581 -29.383136 6.950720
-18.477726 -58.715936 -0.943739
-17.862815 -60.013255 -2.311244
-17.871708 -60.520753 -2.064968
0.871807 -197.816931 -8.934703
-17.987578 -54.789185 -1.822190
-4.694487 -140.875681 -1.683154
-2.986648 -143.710403 -2.973240
-4.040817 -130.369165 -1.888134
-5.587178 -115.292826 -0.446147
-4.223437 -118.597348 -2.079232
-6.799179 -99.391271 0.031138
-7.287748 -94.069643 -0.597424
-7.988812 -88.576612 -0.835603
-12.327733 -64.283020 -1.098822
-16.831920 -44.664977 0.350397
39.223524 -169.885119 -64.227331
-15.159059 -49.186006 0.496124
-13.824428 -54.599904 0.703787
36.069586 -145.300204 -28.027272
60.347750 -184.895224 -27.834943
110.096730 -319.025890 -12.329810
85.191171 -268.459707 0.937414
11.939078 -99.296263 1.577644
84.622176 -210.100233 -49.877468
81.704826 -209.102426 -42.850366
82.114812 -211.468053 -39.943127
12.452596 -100.586970 6.277882
-0.614702 -202.134008 -33.322011
-19.176901 -50.902845 -1.530596
-19.229456 -51.150783 -0.893850
-3.046623 -149.206606 -7.895280
-19.351459 -45.903528 -0.935084
-1.301745 -152.360205 -8.392742
14.660316 -266.005238 -0.807441
-11.235779 -87.816147 -1.992721
-8.633871 -91.995337 -1.013583
-16.230181 -48.493662 0.609751
-13.723131 -57.351657 0.126954
-6.854040 -83.631376 1.045404
-4.905838 -85.975582 0.967932
52.733931 -129.585224 -58.338175
179.649922 -241.815454 -223.240488
25.041268 -77.954370 -44.277881
17.208503 -325.787346 -16.404773
22.137022 -349.076142 -20.255191
21.301677 -323.979541 -13.651224
20.445585 -230.853453 -48.037403
19.348282 -294.499130 -7.742881
18.924852 -279.452571 -4.836337
37.483089 -360.827515 -12.395632
31.948538 -333.007404 -9.470926
-17.661999 -52.507367 -0.088110
38.304364 -346.043519 -8.335814
40.812558 -318.963976 -1.658784
51.244057 -220.313556 -83.011885
17.339062 -153.423737 -28.205504
30.320502 -148.683467 -55.766870
-17.880028 -36.949766 0.013903
73.313973 -305.902487 -0.093189
77.623276 -184.244846 -90.004423
29.715590 -129.957692 -22.705154
93.340837 -190.555655 -99.215354
45.742349 -156.066211 -23.224828
84.041233 -277.549380 13.196014
86.660097 -277.227611 9.483289
65.071405 -177.383036 -37.978016
104.139406 -183.481010 -117.199063
100.704883 -195.703250 -97.395722
87.805027 -275.733859 12.937958
14.928884 -154.741326 -87.133532
-5.446084 -148.838892 -8.270904
-20.474384 -42.208089 -0.505500
-10.386507 -81.817562 -14.258036
-9.143953 -73.968957 -14.100975
-16.164253 -54.412370 -0.041241
-20.001984 -32.391658 0.066215
-22.155533 -22.069657 0.517842
28.892664 -135.732729 -3.842729
15.836761 -72.470636 -27.088068
56.290367 -408.561388 -87.524531
68.104247 -300.746186 -100.601075
48.122919 -274.855534 -55.999687
46.910158 -252.994665 -49.752405
0.613619 -117.921039 -3.477539
1.952900 -71.276339 -11.881245
36.836074 -106.225319 -51.543458
41.086531 -108.296923 -50.721794
3.409853 -100.655923 -29.684012
62.381032 -137.579241 -74.237137
66.920315 -136.345153 -82.917743
63.914099 -142.033311 -59.724823
116.023728 -212.615968 -121.048791
111.754576 -220.795853 -103.386468
118.831701 -205.027199 -129.613536
33.902147 -83.814567 -58.296450
126.183753 -231.930555 -102.769008
-23.481593 -15.845897 -0.425033
-23.496618 -15.824121 -0.354762
-23.508516 -15.813609 -0.307767
-23.476839 -15.836008 -0.415014
-23.498529 -15.812205 -0.323480
-23.479805 -15.818262 -0.376863
-23.488187 -15.810763 -0.342421
-23.460744 -15.896891 -0.547687
-23.507608 -15.813974 -0.308508
-23.500012 -15.812169 -0.321804
-23.486400 -15.815312 -0.359568
-23.480200 -15.817254 -0.373822
-23.482653 -15.847184 -0.426041
-23.510727 -15.815936 -0.308577
-23.476641 -15.842752 -0.428536
-23.495668 -15.824683 -0.354996
-23.500499 -15.814828 -0.327904
-23.479445 -15.819144 -0.376337
-23.486974 -15.840771 -0.405763
-23.474213 -15.847385 -0.441572
-23.494726 -15.827227 -0.363673
-23.513936 -15.805107 -0.274182
-23.470116 -15.839227 -0.431861
-23.477962 -15.818112 -0.378834
-23.503361 -15.811032 -0.312192
-23.515704 -15.801715 -0.259623
-23.519091 -15.802299 -0.253854
-23.546976 -17.465910 -1.216270
-23.519585 -17.475925 -1.252599
-23.539155 -17.443312 -1.129967
-23.572452 -17.415536 -1.015698
-22.748311 -18.461370 -3.475246
-23.548401 -17.427056 -1.069642
-23.535766 -17.423193 -1.054684
-23.547808 -17.408385 -0.985737
-23.548270 -17.403507 -0.962173
-23.548189 -17.385449 -0.858370
-23.549814 -17.342778 -0.456999
-23.435791 -17.351499 -0.734446
-23.499871 -17.335271 -0.476718
-23.528234 -17.340112 -0.352917
-23.378027 -17.332864 -0.669948
-23.273050 -17.323580 -0.724360
-23.251437 -17.317634 -0.716979
-23.175495 -17.353883 -0.931747
-22.612882 -18.102502 -2.764908
-23.205274 -17.317463 -0.764551
-23.229188 -17.291217 -0.605858
-23.165133 -17.333726 -0.865889
-23.241382 -17.282747 -0.530464
-23.219113 -17.286904 -0.597619
-22.715251 -17.904745 -2.373507
-23.157656 -17.323048 -0.831136
-23.200256 -17.290829 -0.647162
-22.794738 -17.777449 -2.106294
-22.847831 -17.697887 -1.926923
-22.695725 -17.910499 -2.387835
-23.067863 -17.398479 -1.139297
-23.121313 -17.342609 -0.931055
-23.162126 -17.307355 -0.759110
-22.807960 -17.739316 -2.016801
-23.209228 -17.263259 -0.441977
-23.546010 -17.466160 -1.214381
-23.552951 -17.450919 -1.156574
-23.517453 -17.476263 -1.256834
-23.535929 -17.443816 -1.138082
-22.753164 -18.451940 -3.447879
-23.555153 -17.424599 -1.054736
-23.539607 -17.422819 -1.050845
-23.546400 -17.385696 -0.867906
-23.548815 -17.342758 -0.464211
-23.459145 -17.342517 -0.646227
-23.528831 -17.339777 -0.353976
-23.535228 -17.342085 -0.325068
-23.417060 -17.347259 -0.722718
-23.372071 -17.332205 -0.670793
-23.270394 -17.323728 -0.733353
-22.610835 -18.108478 -2.781383
-23.204965 -17.318374 -0.774318
-23.255684 -17.285295 -0.525083
-23.229988 -17.290964 -0.597234
-23.160950 -17.335492 -0.873726
-23.219170 -17.288108 -0.605178
-22.719232 -17.899929 -2.366183
-23.100196 -17.384837 -1.071100
-23.075963 -17.405104 -1.153363
-23.155218 -17.324277 -0.839174
-23.198695 -17.292606 -0.653153
-22.786767 -17.786308 -2.122299
-22.847121 -17.699427 -1.926160
-23.163162 -17.308615 -0.767157
-22.811437 -17.736546 -2.012988
-23.199478 -17.275566 -0.557626
-22.715472 -17.855936 -2.277666
-23.543480 -17.466523 -1.219367
-23.534818 -17.444903 -1.146071
-23.551893 -17.386559 -0.874571
-23.551930 -17.343393 -0.454853
-23.501222 -17.335495 -0.485992
-23.271439 -17.325239 -0.735930
-22.599649 -18.126073 -2.832563
-23.204993 -17.319586 -0.783698
-23.228390 -17.290731 -0.600613
-23.160001 -17.333798 -0.870621
-22.723152 -17.899336 -2.362203
-22.747464 -17.861683 -2.284184
-23.100830 -17.386337 -1.078281
-22.854379 -17.698113 -1.921683
-23.075588 -17.406392 -1.160125
-23.195333 -17.294220 -0.675464
-22.691375 -17.931739 -2.422467
-22.791423 -17.780352 -2.108893
-22.811511 -17.742819 -2.026153
-23.058594 -17.412936 -1.170378
