ply
format ascii 1.0
element vertex 1140
property float x
property float y
property float z
end_header
393744.416574 696872.058450 365467.843743
393741.085870 696872.552063 365468.435132
393697.000770 696875.446454 365483.125042
393744.276876 696872.038058 365467.812503
393744.623467 696872.321868 365467.754751
393744.676487 696872.182910 365467.882787
393746.145515 696872.895896 365466.390127
393744.086343 696871.988046 365467.785778
393745.661759 696872.821770 365466.984519
393744.689241 696872.433248 365467.646766
393744.413681 696872.061965 365467.843932
393744.227632 696872.178217 365467.767521
393744.666950 696872.244884 365467.833800
393744.762528 696872.490721 365467.590127
393744.571526 696872.111586 365467.875978
393743.977920 696872.040773 365467.771327
393741.803066 696872.434072 365468.193216
393743.683466 696872.081729 365467.766863
393745.505962 696872.902092 365465.836323
393743.257638 696871.936682 365467.720266
393744.653808 696872.447928 365467.620969
393743.852400 696872.116325 365467.764745
393743.927285 696872.041607 365467.767469
393673.516473 696877.803293 365489.134399
393743.487250 696871.817928 365467.658924
393742.969494 696871.950838 365467.725175
393742.448997 696872.248444 365467.968836
393744.621452 696872.207089 365467.840979
393744.237453 696872.030681 365467.804470
393744.240691 696872.033711 365467.806626
393744.846173 696872.285239 365467.904718
393744.717901 696872.239477 365467.863202
393744.106186 696871.983975 365467.788748
393743.491819 696871.814949 365467.657835
393742.768099 696872.000951 365467.771631
393744.638054 696872.168516 365467.875911
393743.928530 696872.055615 365467.767760
393744.724877 696872.197615 365467.897693
393746.142341 696872.932368 365466.327743
393743.904360 696872.081804 365467.766653
393743.950968 696872.071357 365467.768721
393744.585245 696872.145519 365467.866295
393744.494528 696872.107130 365467.847632
393744.723197 696872.416024 365467.684447
393744.058319 696872.026259 365467.779365
393744.580720 696872.116436 365467.877450
393743.489131 696871.814669 365467.657479
393743.336684 696872.028549 365467.765406
393744.266171 696872.016007 365467.814699
393744.243190 696872.111830 365468.243743
393744.858298 696872.698028 365467.555655
393743.659193 696871.938165 365468.128092
393744.483288 696872.281643 365468.254387
393744.978054 696872.774163 365467.754572
393720.969953 696873.748821 365474.784688
393744.505881 696872.490297 365467.917364
393743.885651 696872.080418 365468.116083
393744.377991 696872.154473 365468.305263
393744.555041 696872.313671 365468.289745
393740.887869 696872.495595 365468.518147
393744.239215 696872.225147 365468.126491
393743.533647 696871.982304 365468.095511
393743.492650 696872.066873 365468.067477
393744.244542 696872.089136 365468.268918
393742.186314 696872.218313 365468.175650
393741.718915 696872.234840 365468.266971
393743.529541 696872.083590 365468.064073
393744.773711 696872.686770 365467.331490
393744.467447 696872.218932 365468.322891
393744.401691 696872.364600 365468.066444
393743.779175 696872.128905 365468.068844
393739.478316 696872.559658 365468.920345
393743.701507 696871.904970 365468.150597
393745.892034 696873.144285 365466.352152
393743.259202 696872.023559 365468.068475
393743.865770 696871.974722 365468.167971
393739.969390 696873.743919 365467.276683
393739.602521 696872.335118 365468.766495
393744.511506 696872.264470 365468.318492
393744.207907 696872.255440 365468.086814
393743.539861 696872.011865 365468.089042
393744.414590 696872.251576 365468.235388
393744.610897 696872.347823 365468.310150
393743.804056 696871.792284 365468.209248
393744.848069 696872.706338 365467.553300
393743.880971 696871.946901 365468.185084
393743.670273 696871.991745 365468.113844
393743.580555 696871.978739 365468.105983
393744.605840 696872.340720 365468.318043
393742.893929 696871.832355 365468.054159
393741.991864 696872.200979 365468.207585
393742.046765 696872.225578 365468.198015
393745.223828 696872.851576 365467.306295
393745.744389 696872.829592 365465.813724
393743.513357 696872.075414 365468.065120
393744.218111 696872.265501 365468.081615
393743.483416 696871.837788 365468.115932
393745.931000 696873.084914 365466.328359
393745.320744 696873.055024 365467.552725
393745.895216 696873.146463 365466.350534
393744.329787 696872.449399 365467.888308
393743.783784 696872.033131 365468.122732
393743.690188 696871.715803 365468.184231
393743.525941 696872.074148 365468.065621
393743.668002 696872.005345 365468.106877
393743.572410 696872.016519 365468.094118
393744.343289 696872.165560 365468.264618
393744.255436 696872.229932 365468.142224
393744.477131 696872.278455 365468.254069
393744.427210 696872.255687 365468.223034
393744.424740 696872.249023 365468.236428
393743.570295 696871.939054 365468.112523
393745.893550 696873.004162 365466.552812
393742.863656 696871.810494 365468.047951
393744.850937 696872.705497 365467.495809
393744.111987 696872.231039 365468.080682
393743.650469 696871.932297 365468.131189
393744.384555 696872.497377 365467.818661
393741.760682 696872.216045 365468.254403
393741.759525 696872.229019 365468.254890
393744.440278 696872.220820 365468.288768
393744.682166 696872.602940 365467.792512
393743.795196 696872.116087 365468.077630
393740.362165 696872.315409 365468.579155
393740.397877 696872.314179 365468.573916
393744.658511 696872.596653 365467.791965
393744.227311 696872.104614 365468.246650
393743.863233 696871.929375 365468.189033
393743.569452 696872.050591 365468.076856
393741.797697 696871.910836 365468.106444
393742.267998 696872.245582 365468.160578
393743.607686 696872.067377 365468.077320
393744.185324 696872.092017 365468.228589
393744.752157 696872.666261 365467.624882
393744.400406 696872.438322 365467.934407
393745.217982 696872.848385 365467.310222
393745.831757 696873.085068 365466.625761
393744.060667 696872.010500 365468.222590
393744.359733 696872.247887 365468.190161
393744.681622 696872.616561 365467.748532
393743.863431 696871.929392 365468.186512
393742.141814 696871.898128 365468.083296
393744.510889 696872.505682 365467.886127
393744.241729 696872.221146 365468.141003
393744.276243 696872.466645 365467.833771
393744.362690 696872.367266 365468.031670
393744.399662 696872.442952 365467.931970
393743.860341 696871.925544 365468.188357
393743.972606 696872.102561 365468.130094
393743.505509 696871.953548 365468.102498
393744.062618 696872.120849 365468.153301
393744.161872 696872.241498 365468.082907
393744.229517 696872.106973 365468.247841
393744.213047 696872.220387 365468.125381
393744.285327 696872.140980 365468.252873
393742.026063 696872.227808 365468.205386
393743.833723 696872.145039 365468.070222
393744.278494 696872.198042 365468.188434
393744.465721 696872.231503 365468.304605
393745.786154 696872.833817 365465.842506
393743.744285 696871.934992 365468.153005
393743.889123 696871.950616 365468.184529
393744.112920 696872.231497 365468.075516
393744.396375 696872.363446 365468.063217
393744.373561 696872.488539 365467.835805
393744.265848 696872.195699 365468.187904
393743.680430 696871.909947 365468.145037
393743.579376 696871.943574 365468.113244
393743.987978 696872.186173 365468.075264
393742.929767 696871.657771 365468.002034
393744.369702 696872.220691 365468.227894
393744.405451 696872.108318 365468.369858
393742.996388 696871.819284 365468.057197
393744.351242 696872.126910 365468.315834
393736.980412 696873.885522 365468.139795
393744.227269 696872.116437 365468.232742
393744.201214 696872.251338 365468.088388
393744.503188 696872.519822 365467.840028
393743.591085 696871.967839 365468.107408
393742.704062 696871.792106 365468.035348
393743.865104 696871.918012 365468.189979
393744.218445 696872.173254 365468.173222
393743.682232 696871.882069 365468.150968
393745.187525 696872.846867 365467.358907
393744.833710 696872.693342 365467.603987
393744.466028 696872.405100 365468.046402
393743.529106 696872.039512 365468.079446
393739.745852 696872.544083 365468.834316
393743.760114 696871.939155 365468.150897
393745.901101 696873.124675 365466.384577
393743.905247 696872.152434 365468.079129
393743.670601 696872.106611 365468.065293
393745.847005 696872.808566 365465.825238
393743.915254 696872.168418 365468.068365
393742.570856 696871.840637 365468.048621
393743.868354 696871.918756 365468.191080
393743.787065 696872.029994 365468.122153
393742.269687 696872.248847 365468.160505
393744.354666 696872.246675 365468.185504
393743.841542 696872.135042 365468.074935
393743.561149 696872.049855 365468.079020
393743.707462 696871.956564 365468.133783
393745.281388 696872.860069 365467.234017
393744.477854 696872.235066 365468.311653
393739.025866 696872.541450 365469.032832
393745.329341 696873.057416 365467.538782
393744.464993 696872.232457 365468.304583
393743.568467 696872.020048 365468.091092
393743.607613 696871.954044 365468.113257
393743.626252 696872.088919 365468.066113
393744.175964 696872.059145 365468.252332
393740.449533 696872.633123 365468.662569
393745.320983 696873.057120 365467.558189
393743.509376 696871.949132 365468.101899
393741.595597 696872.269265 365468.296137
393743.827249 696872.047754 365468.122205
393743.917100 696872.167159 365468.075446
393744.747191 696872.649897 365467.711096
393745.892268 696873.141242 365466.367329
393742.561772 696871.805773 365468.033844
393743.800672 696871.794241 365468.209146
393744.553325 696872.300987 365468.311782
393745.318817 696873.062956 365467.569972
393744.172695 696872.157165 365468.164505
393738.591497 696872.593089 365469.179473
393744.390200 696872.502746 365467.814132
393744.517018 696872.520213 365467.855330
393742.654594 696871.789317 365468.031331
393744.318256 696872.158627 365468.258337
393744.063089 696872.015496 365468.222365
393742.953948 696872.546380 365467.921668
393744.517098 696872.484856 365467.926454
393744.664434 696872.536905 365467.991240
393743.854296 696871.970598 365468.167656
393744.283855 696872.177995 365468.211579
393743.722408 696871.752901 365468.192406
393744.063350 696872.015398 365468.218746
393743.289620 696872.024768 365468.068669
393743.923876 696871.842491 365468.245187
393742.865404 696871.949221 365468.072986
393742.806997 696871.978035 365468.080605
393741.730735 696872.223263 365468.261192
393744.250284 696872.239195 365468.130081
393743.513643 696872.029678 365468.083663
393744.369397 696872.277487 365468.155422
393716.416165 696874.206522 365476.597933
393745.966808 696873.026085 365466.345629
393744.665076 696872.582772 365467.850990
393744.270889 696872.208703 365468.173020
393743.543524 696871.985762 365468.095793
393745.573590 696872.891303 365466.930597
393743.977517 696872.185274 365468.075609
393742.861709 696871.809210 365468.046818
393744.451600 696872.482107 365467.900701
393745.666647 696872.881750 365465.872049
393745.285113 696872.866527 365467.242551
393742.027148 696871.893726 365468.085845
393742.128075 696872.222698 365468.186922
393744.658360 696872.597785 365467.790843
393736.079241 696873.928046 365468.415592
393744.491712 696872.287254 365468.256193
393741.787713 696872.469271 365468.268487
393744.514338 696872.623973 365467.540393
393744.565888 696872.564372 365467.786197
393741.941215 696872.205522 365468.217722
393744.718258 696872.638372 365467.711950
393743.721113 696871.940215 365468.143494
393744.287111 696872.143674 365468.251468
393744.077258 696872.212030 365468.080747
393741.470959 696872.561080 365468.352649
393745.884673 696872.785805 365465.797830
393744.221607 696872.236113 365468.124282
393744.348497 696872.075180 365468.358824
393743.302708 696872.455993 365467.889240
393744.255344 696872.093114 365468.267207
393742.038758 696872.546430 365468.181687
393744.290888 696872.292629 365468.087118
393744.632073 696872.582300 365467.815355
393743.886199 696872.161515 365468.066746
393743.921624 696872.155297 365468.078614
393743.556178 696872.023725 365468.085742
393742.933023 696871.658158 365468.002702
393744.189598 696872.236588 365468.102348
393742.497415 696871.771364 365468.015163
393744.334320 696872.444099 365467.909234
393743.709463 696871.977740 365468.130027
393744.544730 696872.556978 365467.790252
393744.817927 696872.684806 365467.677060
393744.200329 696872.166938 365468.173697
393743.892309 696872.165506 365468.067719
393742.570140 696871.842855 365468.049005
393743.377892 696872.041484 365468.067884
393745.203082 696872.847906 365467.333128
393744.112317 696872.229340 365468.074490
393743.795457 696872.033181 365468.120961
393743.787663 696872.030131 365468.121722
393743.899899 696871.984979 365468.176800
393743.928608 696871.842463 365468.247256
393745.803124 696872.811144 365465.801375
393744.190262 696872.236042 365468.102351
393743.603293 696872.063307 365468.077126
393744.334871 696872.288743 365468.129270
393745.261249 696872.866014 365467.276686
393744.314635 696872.158383 365468.255983
393745.891880 696872.783039 365465.797094
393742.696038 696871.792711 365468.032967
393743.950168 696872.156665 365468.083759
393741.904591 696872.565141 365468.227201
393744.418874 696872.203107 365468.287771
393742.700252 696871.820918 365468.045649
393743.009410 696871.745309 365468.044352
393744.364635 696872.374013 365468.025176
393744.213773 696872.229040 365468.123574
393743.531546 696871.997375 365468.092794
393743.753726 696871.960054 365468.143231
393744.791404 696872.675154 365467.658179
393742.927926 696871.662071 365468.003534
393743.513357 696872.075414 365468.065120
393744.239733 696872.273944 365468.082016
393744.501050 696872.155817 365468.428872
393744.661744 696872.596357 365467.805771
393741.700982 696872.447863 365468.292717
393743.546180 696871.985197 365468.093735
393744.117016 696872.213444 365468.093420
393742.679087 696871.823988 365468.044319
393742.634111 696871.928751 365468.077760
393739.687580 696872.546104 365468.855803
393744.344630 696872.172542 365468.266275
393744.861675 696872.707818 365467.603713
393744.161411 696872.050646 365468.242603
393744.483541 696872.500179 365467.874406
393743.909987 696871.875538 365468.227262
393744.252059 696872.445144 365467.845749
393743.539335 696871.977718 365468.098562
393744.161086 696872.237717 365468.084739
393741.796408 696872.228571 365468.251920
393744.359852 696872.148873 365468.293815
393743.707152 696871.881264 365468.158988
393743.891137 696872.155321 365468.066759
393745.334886 696873.067031 365467.537458
393743.739613 696871.983633 365468.130642
393744.250518 696872.227329 365468.138138
393743.729393 696871.970338 365468.133797
393743.644143 696871.962199 365468.117130
393744.614731 696872.590839 365467.741407
393744.557758 696872.301475 365468.300325
393745.832937 696873.082565 365466.626298
393744.171788 696872.082577 365468.226109
393742.284638 696871.843138 365468.051408
393744.995012 696872.784150 365467.744738
393743.483086 696872.040599 365468.073758
393743.819791 696871.762726 365468.227223
393743.855231 696871.974195 365468.168771
393743.681905 696871.906214 365468.144512
393745.939459 696873.065692 365466.360279
393744.347224 696872.345258 365468.052331
393744.425538 696872.251223 365468.237021
393741.318702 696872.592709 365468.397083
393744.999761 696872.784780 365467.754693
393744.425801 696872.197765 365468.294705
393743.256251 696872.024178 365468.069165
393743.854972 696871.968390 365468.165821
393744.657081 696872.595628 365467.796964
393743.817862 696872.148955 365468.062312
393743.525603 696871.996301 365468.091548
393743.729365 696871.971152 365468.133041
393745.706157 696872.962946 365465.996603
393744.094127 696872.213333 365468.091625
393744.977668 696872.772718 365467.738422
393744.361173 696872.248491 365468.186311
393744.663820 696872.540514 365467.987071
393743.541098 696871.963580 365468.102086
393744.438157 696872.478723 365467.887023
393743.714530 696871.877360 365468.159044
393741.367214 696872.481434 365468.383587
393743.598538 696872.083582 365468.069461
393744.336261 696872.281435 365468.125024
393743.438272 696872.048976 365468.066801
393744.414053 696872.559438 365467.695480
393743.279708 696872.028438 365468.069094
393743.669691 696871.946512 365468.128610
393741.652839 696872.444799 365468.305415
393744.209946 696872.173201 365468.172553
393743.720329 696871.749826 365468.190241
393745.753381 696872.830647 365465.810279
393744.366068 696872.249324 365468.191086
393743.744848 696871.995087 365468.131157
393742.820663 696871.980117 365468.077230
393743.596819 696871.955030 365468.112716
393744.198753 696872.201479 365468.145830
393743.908137 696871.875899 365468.225115
393744.327813 696872.489301 365467.814486
393741.669287 696872.445856 365468.301700
393740.598855 696872.459342 365468.592759
393742.860523 696871.807922 365468.046393
393743.685593 696871.888303 365468.151186
393745.902858 696873.121472 365466.382733
393743.498798 696872.067942 365468.066075
393742.664599 696871.798492 365468.034130
393744.228077 696872.269575 365468.084810
393743.638682 696872.098858 365468.067083
393744.463428 696872.481672 365467.898729
393740.867606 696872.498752 365468.523122
393742.980935 696871.822483 365468.057104
393744.423991 696872.262927 365468.220731
393743.741385 696871.788826 365468.190464
393740.372231 696872.638145 365468.686371
393744.103164 696872.203425 365468.094175
393744.873194 696872.711010 365467.567851
393744.670185 696872.586090 365467.843078
393744.281090 696872.124142 365468.258600
393745.010571 696872.795055 365467.740712
393744.395392 696872.497284 365467.814423
393744.084743 696872.126226 365468.153972
393744.556089 696872.656518 365467.406647
393742.702989 696871.825066 365468.044768
393744.203205 696872.169656 365468.174871
393742.080491 696871.871164 365468.067481
393744.622922 696872.426990 365468.189664
393743.813814 696872.046752 365468.122692
393744.466096 696872.473871 365467.916637
393743.680969 696871.959946 365468.124283
393743.780444 696872.026295 365468.120087
393744.363934 696872.126969 365468.315031
393741.764311 696871.906591 365468.103766
393743.666716 696871.961670 365468.122365
393744.341781 696872.069382 365468.355140
393745.813911 696872.928975 365465.994199
393743.735207 696871.984182 365468.129926
393742.145052 696871.898530 365468.084389
393744.373028 696872.223285 365468.232066
393742.792269 696871.942191 365468.073570
393744.175075 696872.090179 365468.228442
393744.215257 696872.175718 365468.172583
393744.470802 696872.394260 365468.074940
393743.927780 696871.841189 365468.246076
393744.246793 696872.229144 365468.137891
393741.956433 696872.204069 365468.214094
393744.328505 696872.435414 365467.907192
393738.621504 696872.592523 365469.167613
393743.685310 696871.946941 365468.130034
393744.734612 696872.643497 365467.711633
393744.280825 696872.458803 365467.842754
393743.658044 696871.939342 365468.127514
393745.931908 696873.083276 365466.329509
393744.330786 696872.070112 365468.342717
393742.833804 696872.633326 365467.899650
393745.954238 696873.047433 365466.345552
393744.650435 696872.528861 365468.012812
393744.017463 696872.202409 365468.068976
393743.592265 696872.097775 365468.060057
393744.374025 696872.343646 365468.076184
393742.371408 696871.794879 365468.024012
393711.531103 696874.560073 365478.274418
393745.209246 696872.855711 365467.342632
393743.297663 696872.039793 365468.065482
393744.502131 696872.480776 365467.934150
393744.358224 696872.481701 365467.838945
393741.695160 696872.239014 365468.271935
393744.436760 696872.480784 365467.886143
393743.690294 696871.713277 365468.184540
393744.665352 696872.530209 365467.994367
393744.266934 696872.171371 365468.210490
393743.782774 696871.797833 365468.205389
393743.671009 696871.989720 365468.111779
393743.905583 696871.980994 365468.177276
393745.792372 696873.024703 365466.707395
393742.517286 696871.777640 365468.019479
393740.789604 696872.463789 365468.543070
393742.429068 696872.239425 365468.131319
393714.985163 696874.314334 365477.118796
393744.398833 696872.197317 365468.280022
393744.959587 696872.759484 365467.733166
393744.225412 696872.286127 365468.064971
393744.982788 696872.776352 365467.746980
393744.247541 696872.119850 365468.238375
393744.373675 696872.152498 365468.302940
393744.711707 696872.627565 365467.763850
393744.868001 696872.712608 365467.571235
393744.479903 696872.208854 365468.341678
393741.965950 696872.206066 365468.212727
393745.962111 696873.028341 365466.354550
393743.889672 696871.947122 365468.187401
393745.298520 696873.044808 365467.600219
393743.885546 696871.950757 365468.186339
393744.408442 696872.394512 365468.021593
393744.217491 696872.260375 365468.087831
393742.580618 696871.843714 365468.049940
393742.343919 696872.251463 365468.146487
393743.864257 696871.974144 365468.166329
393744.348497 696872.151631 365468.289779
393743.606461 696871.953675 365468.113873
393744.421227 696872.389090 365468.037264
393743.662503 696872.069780 365468.078141
393663.149338 696877.703811 365494.234094
393744.625415 696872.552334 365467.890787
393743.713984 696871.735289 365468.190168
393744.329108 696872.328405 365468.058222
393743.800182 696871.790222 365468.211008
393744.059265 696872.013264 365468.223557
393745.832235 696872.816365 365465.830477
393742.977277 696871.824351 365468.058770
393744.499156 696872.146179 365468.436896
393744.315904 696872.149606 365468.255613
393744.316343 696872.483700 365467.820427
393743.004871 696871.746646 365468.042221
393743.527832 696872.030436 365468.080504
393745.159582 696872.564168 365467.220015
393745.687424 696873.167717 365466.118216
393744.560441 696872.263156 365467.187256
393745.319178 696872.631442 365466.964775
393744.975642 696872.412727 365467.365438
393744.823296 696872.321706 365467.298010
393744.649903 696872.265145 365467.236694
393743.533652 696872.095147 365467.253586
393745.065690 696872.485137 365467.381629
393744.287197 696872.356045 365467.009375
393745.459830 696872.751330 365466.887328
393745.687667 696873.168194 365466.117604
393744.664827 696872.206277 365467.367520
393744.616092 696872.224774 365467.277928
393744.941825 696872.324749 365467.613383
393745.041777 696872.468859 365467.256963
393744.575366 696872.052208 365467.509230
393745.581524 696873.115760 365466.809690
393744.865427 696872.344533 365467.316898
393743.517575 696872.094927 365467.251776
393745.039327 696872.466396 365467.256079
393745.683855 696872.865040 365466.605626
393744.723728 696872.298855 365467.218755
393744.750306 696872.282130 365467.313011
393744.596664 696872.153331 365467.395474
393744.972435 696872.390764 365467.470976
393743.230724 696872.081255 365467.274288
393744.575455 696872.053028 365467.510323
393745.773121 696872.937330 365466.444985
393745.014862 696872.395140 365467.700348
393745.768412 696872.927742 365466.454735
393744.069627 696872.052124 365467.286358
393744.470595 696871.975600 365467.506658
393744.213851 696872.371022 365467.003166
393744.598895 696872.199014 365467.319980
393744.855827 696872.363139 365467.198521
393745.592049 696872.810742 365466.726215
393745.205770 696872.608863 365467.219467
393744.996015 696872.401399 365467.536275
393745.595750 696872.813725 365466.721954
393745.100195 696872.512889 365467.288572
393745.738575 696872.871852 365466.523060
393743.565750 696872.086065 365467.253756
393744.988977 696872.404899 365467.474372
393743.907396 696872.036267 365467.272965
393744.985869 696872.398292 365467.477759
393744.208753 696872.185904 365467.199437
393744.729123 696872.304358 365467.216576
393744.925067 696872.392531 365467.226334
393744.715219 696872.221214 365467.399250
393744.609658 696872.234138 365467.267901
393745.335003 696872.729786 365467.119554
393745.922227 696872.435969 365466.302977
393744.922123 696872.395703 365467.194697
393745.031149 696872.462460 365467.214006
393745.803846 696872.984422 365466.330536
393744.676085 696872.246619 365467.296048
393744.013983 696872.018077 365467.289816
393744.110593 696872.046487 365467.293637
393745.332267 696872.637624 365466.950052
393744.140558 696871.999001 365467.327688
393746.440915 696872.619414 365466.096820
393745.061164 696872.472287 365467.524014
393744.718186 696872.312937 365467.185393
393744.269772 696872.354956 365467.012886
393744.046679 696871.972354 365467.324345
393744.724487 696872.226233 365467.398790
393745.903747 696872.454494 365466.316243
393744.659476 696872.231783 365467.310713
393744.638838 696872.198864 365467.354494
393744.587291 696872.127041 365467.417929
393745.068271 696872.489293 365467.266884
393745.525401 696872.760426 365466.792329
393744.691740 696872.399059 365466.912178
393745.059480 696872.472468 365467.525479
393745.696566 696872.878226 365466.586733
393745.694747 696872.842569 365466.587716
393744.585199 696872.193223 365467.322605
393745.537210 696872.820274 365466.817489
393744.982045 696872.415204 365467.367190
393744.743425 696872.306727 365467.225974
393745.530870 696872.919637 365466.887864
393746.431644 696872.622043 365466.096477
393744.057181 696872.047218 365467.289281
393744.275786 696872.354363 365467.011883
393745.762330 696873.081750 365466.182945
393745.049705 696872.473200 365467.224857
393744.984257 696872.385067 365467.550569
393744.490116 696871.992160 365467.507796
393745.775397 696872.912411 365466.451916
393745.051426 696872.476127 365467.366169
393744.907174 696872.341210 365467.453429
393744.618503 696872.199525 365467.333316
393744.680819 696872.230275 365467.340499
393744.978856 696872.412899 365467.365474
393745.540046 696873.269171 365466.013305
393744.753220 696872.325869 365467.183311
393745.010805 696872.420935 365467.485547
393744.968186 696872.376455 365467.561171
393745.038621 696872.466616 365467.233319
393744.954244 696872.368820 365467.488815
393745.525801 696873.280959 365466.000060
393745.807827 696872.483395 365466.369375
393745.522252 696872.936963 365466.915214
393744.587427 696872.134602 365467.412859
393744.984434 696872.415095 365467.419467
393744.676404 696872.136080 365467.503092
393744.204488 696872.186566 365467.202417
393743.400091 696872.402542 365467.164187
393744.596219 696872.219507 365467.279875
393746.133539 696872.746322 365465.811673
393744.713738 696872.204746 365467.430375
393745.734761 696872.970792 365466.498240
393745.067556 696872.484952 365467.373803
393743.611801 696871.993814 365467.268236
393745.295225 696872.838517 365467.573042
393746.408505 696872.614008 365466.068199
393745.590250 696873.126898 365466.782079
393744.110728 696872.047234 365467.294067
393744.995924 696872.399495 365467.539981
393744.647031 696872.266722 365467.236632
393745.023323 696872.405560 365467.684758
393746.396040 696872.637376 365466.101840
393744.150199 696872.154336 365467.225377
393744.613707 696872.220243 365467.298818
393743.471629 696872.399693 365467.144747
393744.747624 696872.275129 365467.311876
393744.794229 696872.338618 365467.193658
393745.094197 696872.516120 365467.461580
393744.719976 696872.225833 365467.397460
393745.035664 696872.456008 365467.390925
393745.028231 696872.439277 365467.516787
393745.521968 696873.278477 365466.001947
393744.653194 696872.257738 365467.259590
393745.062919 696872.478395 365467.524543
393744.511508 696872.008327 365467.503304
393745.046814 696872.461612 365467.512537
393744.988188 696872.404609 365467.479061
393746.045097 696872.557279 365466.254554
393743.588575 696872.039690 365467.261375
393745.780425 696872.900778 365466.449061
393744.723160 696872.224368 365467.395333
393745.535206 696873.270097 365466.010338
393745.717624 696873.090088 365466.060730
393744.412175 696872.373554 365466.968299
393744.923481 696872.335787 365467.499726
393745.805046 696872.984282 365466.326811
393744.018245 696872.126688 365467.234718
393745.328011 696872.662407 365467.008530
393745.066674 696872.484809 365467.445309
393744.722314 696872.312318 365467.187098
393744.695985 696872.298629 365467.192772
393744.196099 696872.357870 365467.017949
393745.521218 696872.931981 365466.914784
393745.024153 696872.442281 365467.396813
393744.675055 696872.135982 365467.501629
393744.981202 696872.364055 365467.624641
393744.658463 696872.233761 365467.305771
393745.755056 696872.884755 365466.494435
393743.692019 696871.908669 365467.285614
393745.807754 696872.935705 365466.375703
393743.829833 696871.999223 365467.280345
393743.971608 696871.834081 365467.352700
393744.931084 696872.354827 365467.473760
393744.641516 696872.185148 365467.388928
393744.955033 696872.375983 365467.468480
393745.310190 696872.632426 365466.971248
393744.746960 696872.237573 365467.404988
393744.903223 696872.359241 365467.333013
393745.641358 696872.826223 365466.660581
393744.396589 696872.070055 365467.367000
393745.539118 696872.820019 365466.814233
393745.659120 696872.833888 365466.637156
393744.590425 696872.206034 365467.301321
393745.065272 696872.488874 365467.449934
393744.649965 696872.258948 365467.249513
393744.886306 696872.309893 365467.484156
393744.433611 696872.232333 365467.189793
393744.646304 696872.213889 365467.337698
393745.037142 696872.465904 365467.289821
393744.602543 696872.198287 365467.322819
393745.661515 696872.820838 365466.630649
393745.749369 696872.844492 365466.515247
393746.270731 696872.786141 365466.283353
393744.755436 696872.278563 365467.309217
393745.548429 696872.819093 365466.798353
393743.874847 696872.006176 365467.281276
393745.828720 696872.917013 365466.348434
393744.688933 696872.175330 365467.441034
393745.292351 696872.838501 365467.576439
393745.730330 696872.889928 365466.533379
393744.259425 696872.370819 365466.991574
393744.920306 696872.332682 365467.501160
393745.758999 696872.887396 365466.493031
393745.636427 696872.823573 365466.666926
393744.715186 696872.219792 365467.398882
393744.542008 696872.046087 365467.491711
393744.062028 696872.140159 365467.238050
393745.750587 696872.884288 365466.501976
393745.140453 696872.573915 365467.527476
393745.637709 696872.857490 365466.674598
393745.049247 696872.453204 365467.573500
393745.580615 696873.114365 365466.812011
393745.324899 696872.722584 365467.138456
393744.518478 696872.025510 365467.498487
393744.949439 696873.055662 365466.207122
393745.048464 696872.456876 365467.510329
393744.132620 696871.997655 365467.327400
393744.202689 696872.186311 365467.199425
393744.912108 696872.391525 365467.211312
393744.824667 696872.269243 365467.458235
393745.488788 696872.743312 365466.833601
393744.986996 696872.396862 365467.530649
393745.299326 696872.638023 365467.020729
393745.295055 696872.635203 365467.030230
393744.532123 696872.029548 365467.498799
393745.795004 696872.932764 365466.402890
393745.019901 696872.449227 365467.305395
393745.757046 696872.509669 365466.408633
393744.962928 696872.379111 365467.465842
393744.816140 696872.349643 365467.187738
393744.918318 696872.394024 365467.205454
393745.520878 696872.935478 365466.917645
393745.062182 696872.486561 365467.269462
393745.059197 696872.478781 365467.230707
393744.002425 696872.131657 365467.233065
393745.580667 696872.840940 365466.758154
393746.275240 696872.782671 365466.280696
393744.963360 696872.419596 365467.212811
393745.634668 696872.835801 365466.673216
393745.187594 696872.583354 365467.183260
393745.713198 696872.876292 365466.565318
393744.602080 696872.224258 365467.283402
393744.278506 696872.354634 365467.013939
393745.071940 696872.488807 365467.232321
393745.819551 696872.461157 365466.352915
393745.033198 696872.463372 365467.211936
393745.529230 696872.912913 365466.880497
393745.054684 696872.467526 365467.533267
393744.905019 696872.363729 365467.344866
393743.690839 696871.974616 365467.274814
393744.689411 696872.284649 365467.226842
393745.043797 696872.462962 365467.435667
393744.707570 696872.304824 365467.191033
393744.682057 696872.235030 365467.334988
393745.032545 696872.457149 365467.290421
393744.601146 696872.156813 365467.389838
393745.018317 696872.443665 365467.403750
393744.972018 696873.050189 365466.202942
393744.594674 696872.159921 365467.384828
393744.915303 696872.390241 365467.222335
393745.312017 696872.632850 365466.971438
393745.530402 696872.821969 365466.829744
393744.591549 696872.156056 365467.387387
393745.035788 696872.458862 365467.311750
393744.705518 696872.305683 365467.187094
393744.610276 696872.182211 365467.349129
393743.688666 696871.975709 365467.275272
393745.009900 696872.436805 365467.379420
393745.982101 696872.735027 365466.250784
393745.514287 696872.735241 365466.789688
393744.944381 696872.366736 365467.467330
393744.525436 696872.017879 365467.497287
393744.663688 696872.397876 365466.914748
393744.192688 696872.163044 365467.220551
393744.913225 696872.341931 365467.454029
393743.569613 696872.086650 365467.251979
393745.006315 696872.435018 365467.383467
393744.893656 696872.352795 365467.326869
393744.576030 696872.203366 365467.303210
393745.806690 696872.979522 365466.328058
393745.838841 696872.453141 365466.341261
393744.820741 696872.265036 365467.462845
393744.685905 696872.297596 365467.194154
393745.165000 696872.567012 365467.189369
393744.612658 696872.234010 365467.267947
393744.646916 696872.255990 365467.261601
393745.005149 696872.444757 365467.222506
393744.674627 696872.226261 365467.332113
393745.220456 696872.605990 365467.143924
393744.587353 696872.197931 365467.319753
393745.462472 696872.760659 365466.890284
393744.926758 696872.395377 365467.230245
393745.317400 696872.658367 365467.022389
393745.159609 696872.559969 365467.191670
393745.037229 696872.469069 365467.290079
393744.672069 696872.208659 365467.367488
393744.648412 696872.256261 365467.261885
393745.769023 696872.878669 365466.474033
393744.546571 696872.124767 365467.393226
393745.014483 696872.398899 365467.690774
393744.642702 696872.399162 365466.912084
393745.114199 696872.532764 365467.521917
393745.065577 696872.487435 365467.439369
393744.665597 696872.106083 365467.533145
393745.116967 696872.543806 365467.505176
393745.760452 696873.081176 365466.179350
393745.018417 696872.396529 365467.701388
393744.762247 696872.321838 365467.196578
393744.055463 696871.972608 365467.325923
393745.665924 696872.836352 365466.627915
393744.932702 696872.356460 365467.474449
393744.289036 696872.353278 365467.011544
393745.772074 696872.888916 365466.466934
393745.072506 696872.495276 365467.229824
393745.003841 696872.443569 365467.217584
393744.579350 696872.135147 365467.400015
393744.710047 696872.201140 365467.429893
393744.602568 696872.269153 365467.197639
393744.926155 696872.391527 365467.226470
393744.507971 696872.240126 365467.198270
393745.113923 696872.515381 365467.186815
393743.606648 696872.038302 365467.260950
393745.534300 696872.903766 365466.872216
393743.235594 696872.086257 365467.278611
393744.740403 696872.270924 365467.312611
393744.923624 696872.390859 365467.208773
393744.938571 696872.404785 365467.200915
393744.623589 696872.193966 365467.347986
393745.067377 696872.486335 365467.445559
393744.985184 696873.048404 365466.196743
393744.851665 696872.360792 365467.196166
393745.592118 696873.138554 365466.775406
393744.523787 696872.248610 365467.196735
393745.028810 696872.462400 365467.218746
393745.774535 696872.918519 365466.451459
393745.067715 696872.492275 365467.378742
393744.674137 696872.221989 365467.347058
393745.856213 696872.458494 365466.337108
393743.878520 696872.005046 365467.282086
393744.057019 696872.051433 365467.284467
393743.804282 696872.373404 365467.080881
393745.535579 696872.892224 365466.863447
393744.610366 696872.225203 365467.277138
393745.383203 696872.633029 365466.858138
393744.913057 696872.367558 365467.347256
393744.962736 696872.419236 365467.207838
393743.970304 696871.835136 365467.353107
393744.716867 696872.202501 365467.430571
393745.533696 696872.922665 365466.883533
393745.001336 696872.438552 365467.245480
393745.096959 696872.517210 365467.464493
393745.692578 696872.867834 365466.592605
393745.056197 696872.479376 365467.239091
393744.515844 696872.242151 365467.198574
393743.877649 696872.006020 365467.280120
393744.959148 696872.374614 365467.491805
393744.747039 696872.277603 365467.311401
393744.695657 696872.306461 365467.180786
393745.026262 696872.438097 365467.502350
393745.769502 696872.928657 365466.454129
393745.318476 696872.630429 365466.960006
393744.725861 696872.301960 365467.219712
393744.883922 696872.309081 365467.486499
393744.666363 696872.105719 365467.536922
393743.808556 696872.373518 365467.080254
393745.041429 696872.462056 365467.434009
393745.330974 696872.663752 365467.001176
393745.028903 696872.460269 365467.214933
393744.821998 696872.267864 365467.461608
393745.077995 696872.491823 365467.425438
393745.552359 696873.221879 365465.981572
393744.574395 696872.051153 365467.505859
393744.636461 696872.189134 365467.374392
393745.333537 696872.640275 365466.943499
393744.646927 696872.253830 365467.266579
393744.682252 696872.402083 365466.901162
393745.011546 696872.441346 365467.320946
393744.932567 696872.396327 365467.227783
393744.008464 696872.133663 365467.229970
393744.187442 696872.161085 365467.223371
393744.440807 696872.372363 365466.967601
393744.981402 696872.377431 365467.555406
393744.646120 696872.186126 365467.390275
393744.658130 696872.275658 365467.215081
393745.202572 696872.586396 365467.143052
393745.080493 696872.498281 365467.229870
393745.330456 696872.723715 365467.126420
393745.597389 696873.128851 365466.774599
393745.586229 696873.127957 365466.794086
393745.182361 696872.582558 365467.205023
393744.963346 696872.419419 365467.208440
393744.940397 696872.364736 365467.455231
393745.691513 696872.868095 365466.591940
393744.239814 696872.367925 365466.997055
393744.520644 696872.018339 365467.495973
393744.783903 696872.333120 365467.189904
393744.685650 696872.180570 365467.440377
393744.999154 696872.419124 365467.401098
393743.920765 696871.886629 365467.326135
393744.988222 696872.398716 365467.519754
393745.577888 696872.838559 365466.761486
393745.040583 696872.461257 365467.433731
393744.996988 696872.422142 365467.417484
393745.745300 696872.927318 365466.492653
393745.050322 696872.476842 365467.285118
393744.774449 696872.329958 365467.190956
393745.024210 696872.407326 365467.688157
393745.030370 696872.457549 365467.252942
393744.540705 696872.048078 365467.492153
393744.222680 696872.190995 365467.197169
393744.114979 696872.048866 365467.293138
393744.891401 696872.315052 365467.491530
393745.523175 696872.939111 365466.915134
393744.909743 696872.388529 365467.205892
393745.336186 696872.727558 365467.120527
393745.180816 696872.581806 365467.184876
393744.026490 696872.126548 365467.234529
393744.549802 696872.134644 365467.387888
393744.662660 696872.273854 365467.228683
393744.552542 696872.262465 365467.186382
393744.569306 696872.197785 365467.300039
393745.478260 696872.732118 365466.837312
393744.506379 696872.009440 365467.501662
393744.632033 696872.206844 365467.336869
393745.055374 696872.477383 365467.379448
393745.085703 696872.501779 365467.228986
393744.542218 696872.253713 365467.195215
393743.575458 696872.087758 365467.249228
393744.671182 696872.133273 365467.504828
393744.673097 696872.246522 365467.295508
393745.023867 696872.448278 365467.358957
393744.644565 696872.272555 365467.217621
393745.797790 696872.928010 365466.401912
393744.589399 696872.131261 365467.415058
393744.581982 696872.140224 365467.400379
393744.147426 696871.821981 365467.772352
393743.970079 696872.017607 365467.708069
393742.352137 696872.224536 365467.907826
393744.059232 696872.111341 365467.686584
393744.677309 696872.164869 365467.828273
393744.975187 696872.514223 365467.441729
393744.274514 696871.977116 365467.774353
393744.234304 696872.137786 365467.691023
393743.721416 696872.053644 365467.695555
393744.772331 696872.241733 365467.813401
393745.074399 696872.566937 365467.329101
393744.148740 696872.110949 365467.694439
393744.800129 696872.415457 365467.549460
393745.795683 696872.866505 365465.878091
393744.793594 696872.419758 365467.538313
393744.800438 696872.360749 365467.657617
393743.950534 696871.995365 365467.711094
393744.715298 696872.181451 365467.835300
393746.094685 696872.916850 365466.236382
393745.079746 696872.571221 365467.305828
393744.739347 696872.326904 365467.671651
393744.556546 696872.108965 365467.808001
393744.944561 696872.383411 365467.769728
393744.070030 696871.941830 365467.736669
393744.443129 696872.201514 365467.689658
393744.289309 696871.991078 365467.773464
393742.019576 696872.235187 365467.979673
393733.959552 696873.758019 365469.454221
393744.735155 696872.379547 365467.579686
393744.462399 696872.133497 365467.748074
393744.708512 696872.436485 365467.464029
393743.114925 696871.888732 365467.665885
393744.968416 696872.520828 365467.401734
393744.031241 696871.996237 365467.719327
393744.801307 696872.448857 365467.475711
393742.389655 696872.201854 365467.887516
393743.948671 696872.056999 365467.698094
393744.716800 696872.147018 365467.873489
393744.045361 696872.108895 365467.688159
393744.396048 696872.189855 365467.683969
393744.080793 696872.034678 365467.715874
393742.622350 696871.968025 365467.729402
393744.948520 696872.381474 365467.768693
393744.547661 696872.106236 365467.805148
393744.153678 696872.419300 365467.480765
393745.711074 696872.908380 365465.911629
393744.978137 696872.513278 365467.443562
393743.794683 696872.053474 365467.692862
393744.844213 696872.278963 365467.826516
393738.870088 696872.652992 365469.034333
393744.079251 696871.932436 365467.739232
393744.143729 696871.935181 365467.752383
393744.289646 696871.996253 365467.772356
393744.703606 696872.233470 365467.770561
393744.812436 696872.228624 365467.864796
393744.449019 696872.047672 365467.799888
393744.771736 696872.197827 365467.857164
393746.130481 696872.870056 365466.219904
393744.299548 696872.165519 365467.684919
393744.017277 696871.996770 365467.718045
393744.691428 696872.165556 365467.836274
393744.428544 696872.124289 365467.744782
393743.375475 696871.881500 365467.669335
393743.121707 696871.884727 365467.664467
393744.675947 696872.393188 365467.529294
393743.109625 696871.911341 365467.677497
393744.114760 696871.942988 365467.745744
393744.714864 696872.425483 365467.485270
393744.704554 696872.097793 365467.908216
393743.524488 696871.831766 365467.661167
393744.631021 696872.193111 365467.773563
393744.999670 696872.535433 365467.411667
393744.446042 696872.130712 365467.747824
393744.805361 696872.222350 365467.868332
393744.172929 696871.865351 365467.774823
393744.618465 696872.108877 365467.828968
393744.396956 696872.194368 365467.683366
393744.278689 696872.161105 365467.683225
393744.555255 696872.223579 365467.706459
393744.003424 696872.048617 365467.702623
393744.642792 696872.140620 365467.828531
393744.560516 696872.233249 365467.695796
393743.537589 696872.400066 365467.626243
393745.756161 696872.890706 365465.902124
393744.204518 696872.063981 365467.725345
393744.168828 696871.999370 365467.742268
393744.664318 696872.200247 365467.784644
393744.169046 696872.023661 365467.732885
393745.626219 696872.941842 365465.932797
393743.818139 696872.064543 365467.692092
393742.633116 696871.969017 365467.726817
393744.529972 696872.211853 365467.706735
393743.932453 696872.036345 365467.700766
393744.090183 696872.120941 365467.686489
393743.413166 696871.899356 365467.677152
393742.458061 696872.219707 365467.885187
393743.802401 696872.059323 365467.692572
393744.659029 696872.422622 365467.477317
393744.813821 696872.261836 365467.826469
393744.524550 696872.093001 365467.803259
393742.666754 696872.237095 365467.846860
393744.336645 696871.908004 365467.819288
393744.012523 696871.986322 365467.719197
393744.973096 696872.462135 365467.616429
393744.687674 696872.390257 365467.541549
393744.576218 696872.385550 365467.512861
393744.977630 696872.502200 365467.487890
393744.232074 696872.147824 365467.686506
393745.881877 696872.761148 365466.674390
393744.720737 696872.539722 365467.177030
393743.590783 696871.847881 365467.672192
393743.920596 696872.063703 365467.695970
393742.685619 696871.934079 365467.699577
393742.609013 696872.236674 365467.856399
393744.627270 696872.191811 365467.774398
393744.601584 696872.227618 365467.718531
393744.333805 696871.907288 365467.820540
393744.670016 696872.379449 365467.550086
393742.373862 696872.222483 365467.899370
393744.769528 696872.239614 365467.811603
393744.411971 696872.119449 365467.738792
393744.247087 696871.845431 365467.802552
393744.590045 696872.264141 365467.672532
393744.609163 696872.216622 365467.736009
393745.697238 696873.019465 365466.049216
393744.731167 696872.383793 365467.572995
393743.970053 696871.997983 365467.709278
393744.792326 696872.435104 365467.504338
393743.147989 696871.979365 365467.708748
393744.921947 696872.505266 365467.411730
393743.458566 696871.762987 365467.623838
393744.880041 696872.481816 365467.443657
393743.996441 696872.072084 365467.694263
393744.687550 696872.089083 365467.903738
393744.228396 696872.071160 365467.722052
393743.683913 696872.039266 365467.694750
393743.952369 696872.090623 365467.687757
393744.297052 696871.991303 365467.775264
393744.652318 696872.153251 365467.820894
393744.019125 696872.085720 365467.695395
393743.165326 696871.799036 365467.612933
393746.132177 696872.868306 365466.215789
393742.930429 696871.905181 365467.674620
393744.095628 696872.123948 365467.685977
393743.974566 696872.041430 365467.702665
393743.938458 696872.091255 365467.689110
393744.090002 696872.022473 365467.719589
393743.568846 696871.718899 365467.621097
393744.317638 696871.933818 365467.803214
393744.808809 696872.227072 365467.862452
393744.569276 696872.169001 365467.762488
393741.291279 696872.534473 365468.275486
393744.691981 696872.170762 365467.835660
393743.923666 696872.067644 365467.695328
393741.218296 696872.534912 365468.294393
393744.279288 696872.155423 365467.685736
393740.491681 696872.320645 365468.356306
393744.828772 696872.446434 365467.502366
393746.159523 696872.835116 365466.202026
393744.693692 696872.311395 365467.664521
393744.747036 696872.196318 365467.846104
393745.318028 696872.695982 365467.407371
393743.962777 696872.063609 365467.695421
393744.991587 696872.518027 365467.446510
393744.333532 696872.155684 365467.694706
393744.762345 696872.415846 365467.530627
393743.724901 696872.061602 365467.691555
393739.589633 696872.490312 365468.716149
393744.766384 696872.415666 365467.530885
393744.806601 696872.225312 365467.865385
393744.663450 696872.196721 365467.784102
393744.178860 696871.853981 365467.779827
393744.770426 696872.240679 365467.815095
393743.140234 696871.978397 365467.708384
393735.492434 696872.737556 365469.992054
393744.235569 696872.070734 365467.723051
393744.169162 696871.981428 365467.747325
393736.069663 696872.699200 365469.806329
393744.570475 696872.238605 365467.693999
393744.041277 696872.102042 365467.688013
393746.091364 696872.858855 365466.370191
393744.952190 696872.515524 365467.406838
393744.341451 696872.160403 365467.694549
393744.650469 696872.180451 365467.790921
393744.003479 696872.108051 365467.684233
393745.810187 696872.861137 365465.876591
393744.552192 696872.231480 365467.694208
393744.600967 696872.121824 365467.819809
393744.181032 696872.000850 365467.743687
393744.277355 696872.162378 365467.684763
393744.598580 696872.213128 365467.723391
393745.749548 696872.769590 365466.810629
393744.192359 696872.053262 365467.724773
393744.655306 696872.418954 365467.478171
393744.576829 696872.197286 365467.739890
393744.691190 696872.417382 365467.494638
393745.758004 696872.890426 365465.902159
393744.716980 696872.237073 365467.774311
393744.147461 696872.007839 365467.734079
393741.363622 696872.640758 365468.270642
393743.350024 696871.992800 365467.702760
393740.522296 696872.320802 365468.350237
393744.856473 696872.473186 365467.450617
393744.544345 696872.080519 365467.823336
393742.153781 696872.226777 365467.946959
393744.638980 696872.194834 365467.773533
393744.233409 696872.138242 365467.691050
