ply
format ascii 1.0
element vertex 299
property float x
property float y
property float z
property uchar blue
property uchar green
property uchar red
end_header
0.435464 -0.433485 -0.205640 187 152 162
0.680992 -0.634807 -0.471606 68 1 28
0.333873 -0.346352 -0.120059 125 79 89
0.680400 -0.635399 -0.471380 131 9 72
0.681143 -0.635348 -0.471977 76 10 26
0.434867 -0.433047 -0.206038 205 161 174
0.685645 -0.643855 -0.479474 149 102 100
0.684444 -0.644488 -0.478681 59 17 75
0.342116 -0.350101 -0.125380 57 17 51
0.447673 -0.443444 -0.217963 254 254 254
0.389942 -0.399916 -0.167271 212 191 188
0.450595 -0.445868 -0.220738 254 254 254
0.677054 -0.633118 -0.469496 1 6 36
0.684298 -0.642834 -0.477886 131 108 119
0.341663 -0.350009 -0.124588 113 24 5
0.405231 -0.413304 -0.180814 254 254 254
0.684223 -0.641980 -0.477467 155 174 146
0.728935 -0.671005 -0.526257 53 69 53
0.680848 -0.640624 -0.473988 132 149 170
0.682335 -0.639198 -0.472550 68 1 28
0.439560 -0.436709 -0.210325 232 212 206
0.333220 -0.350592 -0.120854 132 113 107
0.334978 -0.344537 -0.120299 215 211 225
0.332823 -0.341105 -0.118005 221 226 200
-3.476570 15.293633 -9.841715 47 39 5
-4.925160 14.687763 -10.116473 127 109 127
-2.963242 15.757695 -9.855058 206 254 238
-4.773371 14.717052 -10.051999 82 79 103
-2.922339 15.758338 -9.895664 45 51 47
-2.873938 15.834668 -9.882949 65 29 32
-3.222875 15.465894 -9.866866 77 75 58
-3.001333 15.648028 -9.883559 27 1 12
-3.481011 15.292824 -9.840785 47 39 5
-2.936856 15.806647 -9.846666 121 30 58
-3.173207 15.487955 -9.883032 181 42 96
-3.305426 15.433108 -9.830194 83 97 97
-3.053863 15.657112 -9.829908 107 167 170
-3.002694 15.661786 -9.897392 14 4 8
-2.656340 16.003525 -10.008940 43 8 30
-2.987292 15.708550 -9.867533 124 24 78
-3.456384 15.312160 -9.832474 62 180 187
-2.708405 15.962531 -9.971673 105 87 62
-3.171949 15.475873 -9.901112 49 1 15
-3.019550 15.630680 -9.894927 34 1 2
-4.806157 14.710679 -10.074130 105 138 147
-2.876041 15.831263 -9.883138 65 29 32
-3.051990 15.649868 -9.856439 222 172 151
-3.391289 15.367075 -9.827903 28 39 82
-2.761597 15.980394 -9.909131 131 153 143
-3.226803 15.428725 -9.896900 2 30 54
-2.936548 15.748006 -9.898112 53 46 34
-2.910871 15.801215 -9.877192 153 155 155
-4.773145 14.717422 -10.052632 98 118 144
-2.949969 15.751895 -9.874690 95 44 53
-4.890701 14.693768 -10.097177 105 79 112
-3.240176 15.460532 -9.849302 182 204 154
-3.245665 15.454824 -9.849430 176 202 156
-2.907472 15.802729 -9.878233 153 155 155
-3.440591 15.325335 -9.835753 70 96 83
-2.936901 15.749357 -9.889958 53 46 34
-3.020298 15.668855 -9.872218 102 119 121
-3.213630 15.506845 -9.824081 19 38 27
-2.937932 15.794835 -9.853978 94 1 1
-4.806408 14.708444 -10.072870 109 123 152
-3.472265 15.294012 -9.839356 35 2 65
-2.974866 15.695018 -9.891901 40 11 20
-2.867239 15.847658 -9.876610 88 39 61
-2.648909 16.042064 -9.980449 66 37 69
-3.022731 15.627078 -9.896116 34 1 2
-2.944561 15.738584 -9.866738 89 45 51
-2.938057 15.794582 -9.852788 94 1 1
-3.453095 15.315986 -9.833541 58 152 189
-2.908345 15.766755 -9.902264 1 58 78
-4.756998 14.722803 -10.045642 51 1 43
-2.867947 15.843851 -9.883275 88 39 61
-3.256369 15.446607 -9.855313 181 212 158
-2.705800 15.958124 -9.975901 78 26 70
-3.415033 15.348412 -9.824655 86 93 74
-2.769303 15.984139 -9.902574 139 157 148
-2.967230 15.780368 -9.834785 127 196 199
-3.047219 15.652315 -9.853027 166 198 194
-3.181154 15.513022 -9.855894 204 180 149
-2.853189 15.878980 -9.875383 55 97 107
-2.913148 15.761938 -9.902190 1 2 47
-3.473694 15.291783 -9.843583 35 2 65
-2.998091 15.714242 -9.852708 193 254 248
-2.908962 15.760337 -9.898213 1 12 47
-3.036254 15.635414 -9.867610 118 58 101
-3.473590 15.292002 -9.840853 35 2 65
-3.194267 15.489782 -9.868501 245 240 190
-2.885398 24.867527 -11.639759 94 1 40
-2.903024 24.856416 -11.619101 39 6 4
-2.906336 24.854382 -11.616586 143 254 250
-2.907943 24.852450 -11.614228 133 39 88
-2.912932 24.846539 -11.605641 27 1 27
-2.929936 24.839864 -11.592635 25 26 96
-2.932824 24.838285 -11.589745 132 156 168
-2.945165 24.832071 -11.579888 139 45 148
-2.948733 24.828560 -11.575555 244 246 198
-2.903307 24.856671 -11.620233 50 25 43
-2.906515 24.855015 -11.616913 135 128 246
-2.929322 24.841238 -11.594001 38 58 69
-2.976474 24.808920 -11.547586 31 1 51
-2.907199 24.853298 -11.614217 126 89 171
-2.909878 24.849245 -11.611008 189 254 254
-2.916183 24.849849 -11.606625 254 254 154
-2.919279 24.846160 -11.603442 86 1 37
-2.934058 24.834943 -11.585552 174 176 171
-2.936571 24.837462 -11.586566 212 192 184
-2.949289 24.829789 -11.576282 135 123 168
-2.949104 24.828164 -11.575090 244 246 198
-2.954918 24.824020 -11.569087 228 226 174
-2.976184 24.809322 -11.548064 68 71 98
-2.936421 24.836539 -11.588378 172 188 204
-2.328780 25.445577 -11.322825 155 121 135
-2.332200 25.444127 -11.319700 151 126 129
-2.337043 25.442010 -11.314678 14 1 37
-2.361957 25.423240 -11.291404 139 22 191
-2.365215 25.421425 -11.288227 254 254 198
-2.326846 25.447049 -11.324961 240 230 232
-2.334306 25.442152 -11.318118 59 1 89
-2.356017 25.427020 -11.296207 254 254 222
-2.359053 25.425103 -11.293917 254 254 237
-2.364587 25.421786 -11.289162 254 254 208
-2.326643 25.447107 -11.324968 240 230 232
-2.334143 25.442302 -11.318476 95 1 101
-2.355985 25.427260 -11.296300 221 221 190
-2.364055 25.422310 -11.289748 223 217 207
-2.326481 25.447610 -11.325288 237 224 227
-2.357329 25.426305 -11.295411 214 211 191
-2.363908 25.422370 -11.289733 223 217 207
-2.357511 25.426409 -11.294493 254 254 223
-2.324987 25.448114 -11.326385 241 243 239
-2.324976 25.448290 -11.326580 239 231 235
-2.324286 25.448312 -11.327572 237 226 231
-2.338557 25.441895 -11.313545 5 1 5
8.110442 27.930521 -18.487416 156 89 109
8.068857 27.839947 -18.230548 44 41 33
8.029941 27.803553 -18.079868 127 203 127
8.071959 27.841995 -18.229121 1 14 68
8.095600 27.882746 -18.357248 215 254 254
8.021430 27.797870 -18.048293 153 59 1
8.079456 27.857085 -18.294401 206 1 65
8.076991 27.852097 -18.274473 198 141 48
8.068708 27.839352 -18.231102 9 32 75
8.069891 27.842808 -18.234488 31 1 2
8.110944 27.932357 -18.492097 175 121 103
8.095471 27.882563 -18.360448 254 254 251
8.096019 27.884699 -18.366388 254 254 251
8.033328 27.804421 -18.077733 60 2 33
8.078696 27.853072 -18.278089 188 122 32
8.083546 27.864608 -18.315033 66 1 25
8.014992 27.793700 -18.021168 254 254 200
8.026332 27.800319 -18.057592 104 12 1
8.110812 27.931284 -18.488202 149 90 115
8.072738 27.846303 -18.254957 190 254 254
8.073313 27.847082 -18.260537 254 254 254
9.948156 26.982376 -21.570599 163 169 139
9.948962 26.984580 -21.567457 2 1 22
9.926548 26.998259 -21.552906 58 149 148
9.932897 26.994104 -21.558012 112 77 68
9.931857 26.993984 -21.557797 105 1 2
9.944816 26.986082 -21.567274 187 98 107
9.912257 27.006123 -21.545010 1 3 6
9.949326 26.984333 -21.567323 4 2 25
9.938998 26.990297 -21.562276 1 1 1
9.875146 27.025044 -21.517581 118 111 115
9.876222 27.024760 -21.518220 118 111 115
9.939646 26.988529 -21.565734 187 230 165
9.910187 27.007047 -21.543505 1 1 2
9.931763 26.994019 -21.558883 22 1 18
10.264557 26.867822 -21.771472 165 150 151
10.275099 26.863707 -21.772433 76 15 5
10.031738 27.005166 -21.617454 74 7 1
10.065915 26.991614 -21.637089 19 1 47
10.119154 26.965408 -21.671516 37 1 25
10.049665 26.998485 -21.626510 106 33 125
10.028052 27.008047 -21.610542 92 89 90
9.966421 27.027465 -21.570159 20 10 39
9.948052 27.032684 -21.557861 157 108 93
10.274182 26.864427 -21.771634 42 9 23
10.065857 26.991649 -21.637190 19 1 47
9.966541 27.027564 -21.570044 40 46 58
10.248933 26.878644 -21.765846 67 68 58
10.253959 26.877797 -21.761371 41 17 19
10.033236 27.005919 -21.612065 112 55 71
9.965939 27.026699 -21.571015 50 43 50
9.999761 27.017605 -21.593138 33 44 49
9.887821 27.043866 -21.518596 147 183 157
10.067132 26.991777 -21.637945 46 55 58
9.887207 27.043929 -21.517237 186 220 206
10.065786 26.991044 -21.642058 59 41 41
9.888742 27.043698 -21.520043 147 183 157
10.040877 27.001897 -21.623452 243 254 188
10.072885 26.989390 -21.638087 225 254 202
9.965117 27.027150 -21.571938 45 46 56
8.487724 25.347409 -20.419309 28 12 15
8.464449 25.359656 -20.409532 21 11 17
8.485863 25.350625 -20.418772 12 8 13
8.922736 24.739870 -20.586967 218 192 168
8.698532 25.351192 -20.534419 110 137 153
8.485346 25.354611 -20.418820 12 9 19
8.623376 25.323256 -20.487894 17 52 83
8.692928 25.343813 -20.530789 106 133 137
8.923288 24.739109 -20.588378 236 222 181
8.627417 25.325206 -20.492629 94 108 121
8.623877 25.322830 -20.490381 64 98 119
8.487742 25.351890 -20.420016 80 77 93
8.463330 25.356250 -20.408686 17 8 14
8.469313 25.368455 -20.409506 35 10 6
8.689200 25.345184 -20.530575 127 137 149
8.485830 25.349272 -20.419618 20 9 8
8.985376 25.521318 -20.683532 78 193 205
9.029995 25.409318 -20.689227 142 171 167
8.998546 25.575176 -20.700839 126 163 168
9.052620 25.378895 -20.697061 123 136 138
8.795110 25.464905 -20.556604 82 92 89
9.060363 25.371902 -20.700044 80 14 34
8.768642 25.547346 -20.555251 65 85 91
8.764748 25.554453 -20.554172 50 53 74
8.768205 25.548054 -20.555094 58 79 94
8.795492 25.467774 -20.557362 28 79 76
8.998163 25.568655 -20.698044 71 191 205
8.989208 25.528852 -20.686198 33 142 152
8.989927 25.529410 -20.686177 34 171 181
8.997860 25.570856 -20.699417 81 190 206
8.988497 25.519757 -20.684651 74 185 193
8.996637 25.571237 -20.698487 105 166 168
8.990600 25.530347 -20.687094 46 132 145
9.059827 25.372643 -20.699772 59 28 47
9.065941 25.364206 -20.703035 147 164 138
9.052382 25.380218 -20.696929 117 136 127
8.795068 25.465600 -20.556646 55 82 85
8.766799 25.546481 -20.553582 90 81 89
9.047281 25.383767 -20.695293 83 86 101
8.987006 25.515117 -20.683433 94 158 182
8.989624 25.521897 -20.685936 74 185 193
8.763554 25.551686 -20.553342 28 52 71
9.053246 25.379490 -20.697246 123 136 138
8.990732 25.530513 -20.687243 46 132 145
8.996677 25.569100 -20.697627 76 170 177
8.794747 25.464908 -20.556331 55 82 85
8.894954 25.561370 -20.683880 196 183 140
9.054986 25.740784 -20.786993 53 50 38
8.880188 24.693872 -20.611513 99 110 89
8.889420 24.691781 -20.617053 92 2 1
8.892858 25.559895 -20.683815 200 152 140
8.563212 25.381582 -20.501679 119 133 157
8.843084 25.514974 -20.663686 36 17 35
8.557898 25.384767 -20.500885 117 132 138
9.027812 25.708240 -20.769702 54 51 38
8.937623 25.607796 -20.715161 53 49 35
8.887929 24.688215 -20.617604 100 46 87
8.694449 25.408516 -20.574899 37 10 22
8.870627 24.696197 -20.607241 75 45 22
8.570373 25.384196 -20.506780 100 125 143
8.873901 25.541671 -20.679661 117 121 118
8.878587 24.692917 -20.610065 107 105 79
8.849575 24.701993 -20.597578 112 168 155
8.923770 25.593717 -20.708077 57 10 26
8.927510 25.595978 -20.709000 53 49 35
8.615324 25.389539 -20.527805 192 165 139
8.865008 24.698136 -20.605269 124 171 133
8.586845 25.384539 -20.513896 46 92 116
8.579911 25.382415 -20.510904 8 1 16
8.868583 24.697669 -20.607049 33 4 8
8.942121 25.612208 -20.718354 55 51 34
8.836225 25.507896 -20.654917 4 4 9
8.839704 25.510545 -20.659309 27 17 35
8.587500 25.385278 -20.516553 60 93 111
8.850637 24.701151 -20.598959 6 11 42
8.932901 25.600365 -20.708919 104 176 158
8.892389 25.559727 -20.684697 151 121 117
8.587301 25.381763 -20.515831 75 84 119
8.867929 25.537015 -20.672521 88 90 69
8.843684 25.512735 -20.654538 2 2 2
8.615043 25.388656 -20.527984 186 160 138
8.863868 24.699314 -20.605250 84 132 88
8.888111 24.690899 -20.614991 14 2 35
8.867311 24.698645 -20.604072 100 98 92
8.850237 24.703247 -20.597066 4 1 33
8.868248 25.536234 -20.676445 114 118 102
8.921618 25.590108 -20.706667 47 9 3
8.589547 25.382805 -20.516542 41 78 100
8.848788 24.701292 -20.598382 27 41 75
8.850334 24.704359 -20.598780 79 143 110
8.565072 25.383617 -20.502193 126 134 149
8.873456 25.541310 -20.673273 71 50 9
8.868463 24.699777 -20.608413 21 39 56
8.849884 24.702119 -20.597140 81 21 38
8.869012 25.537297 -20.676619 114 118 102
8.704529 25.415076 -20.579719 40 24 27
8.556043 25.382634 -20.499812 112 133 137
8.924633 25.593392 -20.710087 53 49 35
8.846399 24.703105 -20.596053 176 184 148
8.581374 25.382073 -20.510679 5 2 4
8.878926 25.547055 -20.680490 117 121 118
8.643809 25.392187 -20.543668 128 120 118
8.894015 25.561991 -20.684900 173 148 137
